# .PCD v0.7 - Point Cloud Data file format
VERSION 0.7
FIELDS x y z normal_x normal_y normal_z curvature
SIZE 4 4 4 4 4 4 4
TYPE F F F F F F F
COUNT 1 1 1 1 1 1 1
WIDTH 592
HEIGHT 1
VIEWPOINT 0 0 0 1 0 0 0
POINTS 592
DATA ascii
0.1692261 0.070325911 -0.685 -0.24990392 -0.58071131 0.77480477 0.0082480358
0.172368 0.070224002 -0.68400002 -0.20154892 -0.58717579 0.783966 0.0084768366
0.1817486 0.069702864 -0.68400002 -0.049674321 -0.59209621 0.80433488 0.010990289
0.1947771 0.069702864 -0.68400002 0.17587215 -0.5695622 0.80291212 0.009013026
0.19673145 0.069702864 -0.68400002 0.21128167 -0.56625199 0.79669237 0.0081585906
0.19955431 0.070137151 -0.68400002 0.25214726 -0.5577361 0.79079211 0.0069545805
0.2023862 0.070508093 -0.68550003 0.29207361 -0.54976243 0.78259456 0.0062413346
0.20502888 0.070812382 -0.68633336 0.33474511 -0.54117066 0.77141434 0.0058489987
0.20740861 0.071317136 -0.68699998 0.35664779 -0.53579193 0.7653296 0.0059607401
0.16089697 0.073585331 -0.68619996 -0.38395259 -0.55689764 0.73650903 0.0065635704
0.16358382 0.073880956 -0.68499994 -0.35099289 -0.56469631 0.7469418 0.0074213259
0.16666631 0.072956577 -0.68519992 -0.30040148 -0.5764153 0.75993705 0.0082384441
0.16937146 0.072308578 -0.68400002 -0.25002906 -0.58277118 0.77321613 0.0082712919
0.1713257 0.072308578 -0.68400002 -0.22331464 -0.58593118 0.77898335 0.0092009772
0.1999886 0.072308578 -0.68400002 0.26552486 -0.55355173 0.7893523 0.0068770782
0.20302854 0.073177144 -0.68400002 0.30736944 -0.54251271 0.78179532 0.0060825786
0.20567572 0.073990002 -0.68449998 0.34346142 -0.53085345 0.77474439 0.0053485297
0.20783597 0.073199764 -0.68624997 0.36805731 -0.53026974 0.76377213 0.0057506622
0.15244859 0.077860013 -0.68699998 -0.50505668 -0.51444137 0.69301355 0.0067771622
0.1542986 0.077803344 -0.68649995 -0.4809804 -0.52143282 0.70481598 0.0072044651
0.15770274 0.076644644 -0.6863749 -0.43864483 -0.53908718 0.71901017 0.006745785
0.15983334 0.075675234 -0.685 -0.40239629 -0.54985934 0.73193717 0.0072728219
0.20585145 0.076868579 -0.68400002 0.35387 -0.52461106 0.7743122 0.0056341426
0.20876223 0.076327309 -0.68499994 0.3812145 -0.52078605 0.76384389 0.0053755851
0.21183448 0.076495081 -0.68650001 0.42189366 -0.51208228 0.74818283 0.0058988454
0.21395139 0.077860013 -0.68699998 0.44064689 -0.50475007 0.74233258 0.0056208014
0.1498314 0.079822868 -0.68699998 -0.54513085 -0.49525714 0.67642647 0.0074122241
0.15168336 0.079764768 -0.68649995 -0.52287328 -0.50539005 0.68642867 0.0074064005
0.1543078 0.079696767 -0.68479997 -0.47682518 -0.5192582 0.70923108 0.0065697641
0.15729907 0.078976505 -0.68533337 -0.44307211 -0.53315008 0.72072053 0.0065339566
0.20910861 0.078822859 -0.68400002 0.38395676 -0.51386899 0.7671479 0.0053122821
0.21148634 0.079333976 -0.68466663 0.41812792 -0.50769919 0.75326663 0.0055633378
0.21444954 0.079764292 -0.68650001 0.45351362 -0.49956301 0.73808014 0.0065029194
0.2165686 0.080477148 -0.68699998 0.47348291 -0.4936147 0.72949195 0.0064154034
0.14878458 0.082570873 -0.68699998 -0.56911385 -0.48147058 0.66655499 0.0075499956
0.15157336 0.082320005 -0.68599999 -0.5324958 -0.50028396 0.68276221 0.0075241076
0.15308569 0.082080007 -0.68400002 -0.49586493 -0.51050031 0.70250088 0.0069490727
0.21447667 0.082139522 -0.68449998 0.45170474 -0.4957599 0.74174452 0.0057669329
0.21723013 0.082141921 -0.68633336 0.47091055 -0.49269927 0.7317723 0.0061835106
0.2191857 0.081785724 -0.68699998 0.50264764 -0.48494682 0.71566188 0.0079667168
0.14539874 0.086105399 -0.68666667 -0.61796653 -0.45462063 0.64143389 0.0072537605
0.14830603 0.085585818 -0.68599993 -0.58723772 -0.47254041 0.65715867 0.0076080733
0.15117717 0.085175626 -0.68479997 -0.54656023 -0.48952278 0.6794405 0.0077618035
0.21757142 0.085419051 -0.68466663 0.4783619 -0.48486525 0.73217177 0.0066522737
0.2191857 0.085057139 -0.68699998 0.50821126 -0.47875175 0.71590376 0.0086931931
0.14258215 0.088950247 -0.68674999 -0.65818793 -0.42755392 0.61966622 0.0069812592
0.14525652 0.08863461 -0.68600005 -0.63123339 -0.44392905 0.63598073 0.0063949334
0.14822057 0.088515431 -0.68440002 -0.59872746 -0.46291611 0.65363151 0.0071454644
0.21822859 0.087942861 -0.68400002 0.49182442 -0.46720082 0.73473269 0.0077281245
0.22089317 0.087911427 -0.68580002 0.52871513 -0.46229994 0.71185613 0.0095049459
0.1406714 0.091600001 -0.68699998 -0.69453436 -0.4068687 0.59336323 0.0075789434
0.14273445 0.09154363 -0.68559998 -0.66879302 -0.42057917 0.61304897 0.0070083276
0.14537384 0.090940475 -0.68449998 -0.63670599 -0.44064385 0.63280207 0.0076378118
0.1491771 0.090548567 -0.68400002 -0.59640104 -0.46179473 0.65654504 0.0078962538
0.2230057 0.091594927 -0.68533337 0.54604107 -0.43809795 0.71407938 0.010705406
0.1404667 0.094080001 -0.68599999 -0.70241088 -0.39978632 0.58888865 0.0072987112
0.14253579 0.094124362 -0.68428576 -0.67582172 -0.41645333 0.60813791 0.0074030347
0.22637525 0.094594292 -0.68499994 0.57404613 -0.41736075 0.70447218 0.011928725
0.13944504 0.097472265 -0.68557143 -0.71747303 -0.38975534 0.57734162 0.0071401298
0.14136 0.09771429 -0.68400002 -0.6993655 -0.40346029 0.59000653 0.0080067115
0.22930285 0.098365717 -0.68400002 0.60376054 -0.40005144 0.68951571 0.013088954
0.2312571 0.09771429 -0.68400002 0.60881597 -0.4008655 0.68458009 0.013479007
0.13674571 0.1014143 -0.68699998 -0.75662977 -0.36283115 0.5439347 0.0072040376
0.13902286 0.10051523 -0.68533337 -0.73214537 -0.37997055 0.56531888 0.007495984
0.2273486 0.1009714 -0.68400002 0.59300798 -0.40320492 0.69697011 0.013109495
0.22980572 0.10054144 -0.68550003 0.61323172 -0.39265993 0.68539411 0.0134371
0.2312571 0.09966857 -0.68400002 0.6168443 -0.39130512 0.68292272 0.0137143
0.13711494 0.10354477 -0.68666667 -0.76527297 -0.35759327 0.53524226 0.0071077142
0.13852096 0.1028581 -0.68500006 -0.74506932 -0.37187654 0.55369616 0.0074613132
0.2273486 0.1022743 -0.68400002 0.59263647 -0.40319592 0.6972912 0.013984225
0.1341286 0.1079571 -0.68699998 -0.80002773 -0.32594141 0.50370407 0.0082119452
0.13645753 0.10638774 -0.6863749 -0.77827424 -0.34641561 0.52372271 0.0080175288
0.13370954 0.10992209 -0.68620002 -0.80577552 -0.32101142 0.49767211 0.0085820146
0.13584574 0.10932891 -0.68466663 -0.78917247 -0.33649632 0.51378697 0.0087724896
0.13151141 0.1131914 -0.68699998 -0.82749343 -0.3024134 0.47307596 0.0078154625
0.13380191 0.11226414 -0.68533337 -0.80938315 -0.3202132 0.49230316 0.0087784594
0.1314476 0.11575177 -0.68666667 -0.83311695 -0.29775229 0.46611127 0.0075956914
0.13291584 0.11517638 -0.68480003 -0.82128054 -0.31075034 0.47846884 0.0083852112
0.1288943 0.11908 -0.68699998 -0.8555643 -0.27696821 0.43737659 0.0069385543
0.13053524 0.11851352 -0.68600005 -0.84453535 -0.28765306 0.45168096 0.007860342
0.1288943 0.1210429 -0.68699998 -0.85941535 -0.27371395 0.43184036 0.0069539673
0.13032123 0.12118477 -0.68533337 -0.84877425 -0.28126878 0.44773892 0.0071969656
0.1288943 0.1243143 -0.68699998 -0.86350244 -0.26586729 0.42857686 0.0064268801
0.12963431 0.12442287 -0.68400002 -0.85139549 -0.27415615 0.44717333 0.0070967567
0.1288943 0.12758569 -0.68699998 -0.87272644 -0.25321028 0.41741243 0.0062032817
0.12963431 0.1270286 -0.68400002 -0.85798359 -0.26511323 0.4399763 0.0064498889
0.1288005 0.13076144 -0.68649995 -0.88008559 -0.243443 0.4076578 0.0061205742
0.12783426 0.13306287 -0.68600005 -0.88522035 -0.23171623 0.40335169 0.0057619098
0.12740001 0.13654672 -0.68600005 -0.8935467 -0.21518676 0.39404193 0.0049351379
0.12484734 0.13922702 -0.68633336 -0.90442193 -0.19806495 0.37787724 0.0047398023
0.12657847 0.13937962 -0.68580002 -0.90307713 -0.19735736 0.38144693 0.0048566186
0.12472413 0.14257461 -0.68566668 -0.90847939 -0.18460235 0.37494946 0.0048761209
0.12679477 0.14276715 -0.68449998 -0.90159166 -0.18867329 0.38927487 0.0051875738
0.12460342 0.14547962 -0.68500006 -0.91166121 -0.16528752 0.37623632 0.0046475069
0.1270286 0.14592001 -0.68400002 -0.90486646 -0.16938221 0.39054632 0.0048959982
0.12425858 0.14841573 -0.68550003 -0.91703886 -0.14669864 0.3708359 0.0048101223
0.12404145 0.15146288 -0.68550003 -0.92089778 -0.1271202 0.36849383 0.0047408333
0.1244229 0.1582972 -0.68400002 -0.92092633 -0.094309285 0.37815389 0.0048214877
0.1250743 0.1596 -0.68400002 -0.91895026 -0.085668042 0.38495642 0.0045302697
0.18473525 0.068300001 -0.68300003 0.0057595144 -0.5906167 0.80693167 0.010537792
0.18733715 0.068300001 -0.68300003 0.056531902 -0.58612758 0.80824411 0.0097106053
0.1892886 0.068300001 -0.68300003 0.089522384 -0.58269161 0.80774754 0.009275361
0.1736771 0.070901908 -0.68300003 -0.17761242 -0.5903033 0.78739816 0.0094811171
0.1756286 0.070251428 -0.68300003 -0.14858149 -0.5888924 0.79443645 0.0096975006
0.17823049 0.070251428 -0.68300003 -0.10520771 -0.59140986 0.79947835 0.010042785
0.18148287 0.070381522 -0.68300003 -0.04902143 -0.59073466 0.80537534 0.010821105
0.1846 0.070199519 -0.6825 0.009502002 -0.58631015 0.81003094 0.0091924481
0.18720001 0.070199519 -0.6825 0.055818401 -0.58428037 0.80963004 0.0090766186
0.19045 0.070199519 -0.68250006 0.11847005 -0.57691383 0.80816793 0.0089368122
0.19362508 0.070468262 -0.68300003 0.16913952 -0.57060659 0.80361682 0.0088645592
0.1964438 0.070901908 -0.68300003 0.2045884 -0.56384772 0.8001371 0.0083148405
0.19839519 0.070901908 -0.68300003 0.22856709 -0.56106085 0.79559278 0.0070734504
0.16652191 0.074804768 -0.68300003 -0.30056751 -0.57616049 0.7600646 0.0087438887
0.16936497 0.074218668 -0.68240005 -0.24999942 -0.58495128 0.77157784 0.0091195991
0.17263922 0.073457144 -0.68257153 -0.19957836 -0.59033209 0.78209752 0.0094367061
0.17537144 0.072746672 -0.68199998 -0.14971335 -0.59335518 0.7908954 0.010298455
0.1782943 0.072421908 -0.68199998 -0.10289604 -0.59488827 0.79719526 0.0099879354
0.1812171 0.072097152 -0.68199998 -0.053005584 -0.58598226 0.8085885 0.010629518
0.18706286 0.072097152 -0.68199998 0.05876185 -0.58139527 0.8114965 0.0097335754
0.19031046 0.072097152 -0.68200004 0.11652659 -0.57513124 0.8097195 0.0086661894
0.19362929 0.072773099 -0.68224996 0.16933697 -0.57008094 0.8039481 0.0085426625
0.1963 0.072799526 -0.6825 0.20211752 -0.56361663 0.80092746 0.0081216795
0.19946887 0.07385987 -0.68285722 0.26067123 -0.55433536 0.79041946 0.0071494044
0.2022981 0.074804768 -0.68300003 0.30074513 -0.54101723 0.78539973 0.0059501142
0.16088039 0.076863617 -0.68279999 -0.38462543 -0.5533675 0.73881513 0.0076645538
0.16385975 0.076727852 -0.68275005 -0.35204101 -0.56336027 0.74745727 0.0086615933
0.16614254 0.076464444 -0.68233335 -0.31186888 -0.57021058 0.75999844 0.0089456718
0.1682267 0.07599429 -0.68199998 -0.2712037 -0.58023417 0.76796931 0.0093062744
0.20026986 0.076427303 -0.68200004 0.27518284 -0.54583353 0.79141659 0.0071713072
0.20316544 0.07653936 -0.68300003 0.32018462 -0.53565419 0.78138101 0.006082959
0.15729955 0.079949997 -0.6825 -0.44004956 -0.53382117 0.72207421 0.0065811411
0.15978286 0.078592382 -0.68199998 -0.4032554 -0.54663724 0.73387516 0.0076086177
0.2035991 0.078707621 -0.68300003 0.3299903 -0.52795166 0.78254294 0.0066124084
0.20540002 0.079299524 -0.6825 0.35194993 -0.52206063 0.77690673 0.0062688994
0.2078343 0.079535872 -0.68266672 0.37615916 -0.51446974 0.77060056 0.0057380493
0.21010379 0.080008566 -0.68300003 0.40023053 -0.50889277 0.76213098 0.0052849278
0.15286189 0.083911426 -0.68300003 -0.51077414 -0.50530177 0.69554287 0.0076857498
0.15469986 0.082549371 -0.68250006 -0.47660318 -0.51967442 0.70907539 0.0072665457
0.15686005 0.082164764 -0.68199998 -0.45290861 -0.5280543 0.71835405 0.0069995117
0.20882192 0.082164764 -0.68199998 0.38437137 -0.51061416 0.7691111 0.0056121955
0.21151839 0.082569845 -0.68266672 0.4219918 -0.50035113 0.75602359 0.0057743597
0.21465716 0.083911426 -0.68300003 0.45084965 -0.491126 0.7453388 0.0060612266
0.15227906 0.085995875 -0.68233335 -0.52325845 -0.49796692 0.69154143 0.0081475284
0.15458664 0.08508762 -0.68199998 -0.48523146 -0.51609951 0.70582694 0.0079217413
0.21476892 0.085603818 -0.68266672 0.45238817 -0.48430204 0.74886346 0.0064463108
0.2162914 0.086386673 -0.68199998 0.46360025 -0.47695675 0.74671757 0.00628115
0.15121163 0.088282861 -0.68260002 -0.55003262 -0.48539728 0.67959821 0.0084169619
0.2169365 0.088638112 -0.68266672 0.46886161 -0.46835443 0.74887449 0.0063458183
0.21921051 0.089115247 -0.68300003 0.49688706 -0.4576228 0.73734981 0.0080009522
0.14625001 0.092299528 -0.6825 -0.62053561 -0.44912511 0.64282358 0.008074414
0.1479293 0.091683097 -0.68275005 -0.60888606 -0.45489487 0.64986801 0.0080398489
0.15004 0.090933338 -0.68199998 -0.57896048 -0.46698505 0.66837841 0.0076882723
0.21845651 0.090716831 -0.68200004 0.48807573 -0.45741358 0.74334031 0.0075972625
0.22040379 0.091671757 -0.68266672 0.51432365 -0.44445297 0.73343891 0.010000148
0.14310475 0.095619999 -0.68300003 -0.6687007 -0.41892603 0.61428034 0.0074091628
0.14527477 0.094249524 -0.6825 -0.64345807 -0.43629763 0.62897229 0.0068435334
0.22181241 0.09431906 -0.68300003 0.53765619 -0.42998517 0.72528511 0.011569975
0.22363369 0.094579242 -0.68300003 0.55078912 -0.42419851 0.71880937 0.01184033
0.2270162 0.095619999 -0.68300003 0.57472408 -0.41511959 0.70524311 0.012474429
0.14299954 0.097500004 -0.6825 -0.67703569 -0.41644791 0.60678971 0.0076033827
0.1448438 0.097428575 -0.68199998 -0.6605835 -0.42604452 0.61815494 0.0080318134
0.2238711 0.097306684 -0.68266672 0.55685258 -0.42089167 0.71607643 0.0124099
0.2263657 0.09757144 -0.68300003 0.57476658 -0.41351658 0.70614964 0.012885209
0.22896765 0.09692096 -0.68300003 0.58891165 -0.40847495 0.69737458 0.013185258
0.14248583 0.10056868 -0.68237501 -0.69561684 -0.40339467 0.59446621 0.0077963811
0.2240857 0.10002667 -0.68199998 0.5624429 -0.41938061 0.71258539 0.012780589
0.22592859 0.099858746 -0.68233335 0.57501554 -0.41045851 0.70772934 0.013144199
0.13977011 0.10362495 -0.68260002 -0.72954637 -0.38302687 0.56661499 0.0077341008
0.14169949 0.10269955 -0.6825 -0.71139514 -0.39473873 0.5814622 0.0080230022
0.1372505 0.1073286 -0.68300003 -0.75935441 -0.36449158 0.5390054 0.0079711787
0.1390488 0.10656071 -0.68224996 -0.74301064 -0.37432855 0.55480933 0.0074019614
0.1370495 0.10912 -0.68199998 -0.76335418 -0.35972026 0.53655553 0.0077485158
0.13464861 0.1138333 -0.68300003 -0.80065662 -0.32574767 0.50282943 0.0088365069
0.13617475 0.11212477 -0.6825 -0.78937942 -0.33928451 0.51163089 0.0088397814
0.13414921 0.11594477 -0.68266672 -0.80966192 -0.31925589 0.49246642 0.0086007155
0.1357505 0.1149657 -0.68199998 -0.79986721 -0.32725731 0.50310534 0.0088270893
0.13300896 0.11818724 -0.68260002 -0.82348365 -0.3047685 0.4785299 0.0085398695
0.13074569 0.12228955 -0.68300003 -0.83929414 -0.28728825 0.46157432 0.0076197055
0.1320467 0.1203381 -0.68300003 -0.83029652 -0.29656965 0.47186235 0.008110309
0.1311149 0.125047 -0.68266672 -0.84579009 -0.27713725 0.45588809 0.0071495129
0.13024828 0.12764764 -0.68266672 -0.85177523 -0.26892555 0.44961998 0.0069118254
0.12985067 0.13037066 -0.68239999 -0.86035317 -0.25588903 0.44080967 0.0065046065
0.1281438 0.1339981 -0.68300003 -0.87685144 -0.2357659 0.41898209 0.0057685669
0.12925521 0.1331524 -0.68199998 -0.86766607 -0.24410884 0.43308955 0.0064268052
0.1279562 0.1364 -0.68199998 -0.8798697 -0.22692175 0.41753528 0.0058148159
0.12805 0.13909951 -0.6825 -0.88658154 -0.21207207 0.41109458 0.0056401677
0.1279562 0.14289525 -0.68199998 -0.89372462 -0.18940115 0.4066737 0.0054227598
0.1279562 0.14549336 -0.68199998 -0.89730662 -0.17331064 0.40596095 0.0050318982
0.1255419 0.1489591 -0.68300003 -0.9111442 -0.14557058 0.38551965 0.0047062836
0.12715207 0.147947 -0.68233335 -0.90483201 -0.15338399 0.39718062 0.0049167229
0.12517072 0.15183024 -0.68275005 -0.90980512 -0.13001356 0.39414585 0.0042152456
0.1266571 0.15068954 -0.68199998 -0.90619361 -0.13695759 0.40006959 0.0043164035
0.12455274 0.15444539 -0.68233335 -0.91500062 -0.11522895 0.38664725 0.0043398747
0.12479955 0.15729955 -0.6825 -0.91643965 -0.10056119 0.38733169 0.0045598205
0.12479955 0.16055 -0.6825 -0.91735077 -0.078665726 0.39022979 0.0044406201
0.181981 0.07188572 -0.68000001 -0.036545109 -0.58808333 0.80797428 0.010673071
0.18392381 0.07188572 -0.68000001 0.0023527616 -0.58541632 0.81072944 0.0094133336
0.17550477 0.074476197 -0.68000001 -0.14438458 -0.59202498 0.79288054 0.010561077
0.1786769 0.073801197 -0.67975003 -0.082649812 -0.59545034 0.79912955 0.011894057
0.1812 0.073773816 -0.67950004 -0.04039105 -0.59005684 0.80635071 0.011386732
0.18443573 0.073773816 -0.67949998 0.011402697 -0.58795595 0.80881262 0.010402372
0.18774068 0.073801197 -0.67974997 0.077329226 -0.58051479 0.81056941 0.010286937
0.1904 0.073828578 -0.68000001 0.12155423 -0.577604 0.80721629 0.0099141737
0.19363809 0.074476197 -0.68000001 0.16920784 -0.5674746 0.80581713 0.0088427765
0.19622859 0.074476197 -0.68000001 0.20546941 -0.56054366 0.80223006 0.0075234137
0.16708571 0.077066667 -0.68000001 -0.28130999 -0.57614958 0.76740885 0.0093216151
0.1696762 0.076419048 -0.68000001 -0.24280715 -0.5821659 0.77596873 0.0092523741
0.17255311 0.07650324 -0.67959994 -0.19075051 -0.58775252 0.78623235 0.010623082
0.1756082 0.076221906 -0.67939997 -0.14192933 -0.59176534 0.79351741 0.01097798
0.17848 0.075659998 -0.67900002 -0.093489617 -0.59136003 0.80097008 0.012465883
0.18559331 0.075659998 -0.67900002 0.034196936 -0.58288884 0.81183189 0.010971999
0.18753335 0.075659998 -0.67900002 0.07723733 -0.57969213 0.8111667 0.010480289
0.19012001 0.076306663 -0.67900002 0.1262006 -0.5749442 0.80840123 0.01034029
0.19349572 0.076362386 -0.67950004 0.17256211 -0.56923479 0.80386204 0.0093576834
0.19680405 0.076390713 -0.67975003 0.21470127 -0.55648541 0.80263776 0.0075704399
0.1985267 0.076953337 -0.67900002 0.24552619 -0.54804426 0.79960269 0.0082803704
0.2014095 0.077066667 -0.68000001 0.29103696 -0.53946221 0.79011261 0.007638264
0.1586667 0.080304757 -0.68000001 -0.40967429 -0.54289287 0.73309904 0.0070867972
0.16064417 0.079868957 -0.6796 -0.3890031 -0.54792333 0.74057859 0.0079127681
0.16330573 0.079572938 -0.67928576 -0.35343915 -0.55836338 0.75054049 0.0089343842
0.16654955 0.078810111 -0.67939997 -0.29837438 -0.56697857 0.76779425 0.0094065508
0.16921112 0.078677788 -0.67900008 -0.25214234 -0.57500803 0.77832514 0.0095835961
0.17136671 0.078246668 -0.67900002 -0.21585093 -0.58317339 0.78314567 0.011276754
0.199487 0.078716196 -0.67933339 0.26358709 -0.5428825 0.79737103 0.0075237551
0.20180915 0.07986895 -0.67960006 0.29901332 -0.53231877 0.79197717 0.007103709
0.2046476 0.080952384 -0.68000001 0.33715773 -0.52149963 0.783813 0.0068833469
0.15790236 0.082834288 -0.67949998 -0.43217748 -0.5354743 0.72559625 0.0079129189
0.1601578 0.082557783 -0.67900008 -0.401766 -0.54567659 0.7354055 0.0086346352
0.20326892 0.082557783 -0.67900008 0.32422063 -0.52250117 0.78858954 0.0079289535
0.20586738 0.082864523 -0.67975003 0.35457012 -0.51407272 0.78103101 0.0067075766
0.2078857 0.082895242 -0.68000001 0.37535459 -0.50920981 0.77447677 0.0060368022
0.15413335 0.086133331 -0.68000001 -0.48648375 -0.51246971 0.70760751 0.0082974145
0.15666595 0.085454047 -0.67975003 -0.45969 -0.52328026 0.71753937 0.0085830623
0.2062867 0.08471334 -0.67900002 0.35930297 -0.50921172 0.78205168 0.0067375293
0.20854478 0.085186027 -0.67933339 0.38483581 -0.49990126 0.77588665 0.0062140226
0.21104643 0.085454047 -0.67974997 0.41827193 -0.48969749 0.7650131 0.006372673
0.2130667 0.086133331 -0.68000001 0.42788434 -0.48414335 0.76323014 0.0063189995
0.15219051 0.088723809 -0.68000001 -0.52274215 -0.49382737 0.69489217 0.0082474519
0.15450501 0.088819757 -0.67949998 -0.49474823 -0.50442475 0.70765805 0.0079936655
0.1566081 0.087364286 -0.67949998 -0.46442866 -0.51863277 0.71786213 0.0078299856
0.2118911 0.088162228 -0.67900008 0.42691311 -0.48031113 0.76618958 0.0063136895
0.21395931 0.088366903 -0.67974997 0.44138125 -0.47528836 0.76110673 0.0062493128
0.14895239 0.092609517 -0.68000001 -0.58438116 -0.46365482 0.66597515 0.0073668472
0.15143126 0.091246508 -0.67950004 -0.54487318 -0.48070735 0.687047 0.0081609199
0.15390664 0.091179997 -0.67900002 -0.51090837 -0.4950262 0.70279574 0.0082776314
0.21145999 0.091179997 -0.67900002 0.42857829 -0.47699779 0.76732898 0.0064893574
0.21549855 0.090599522 -0.67949998 0.45690849 -0.46582675 0.75778627 0.006440578
0.21727777 0.092132382 -0.6796667 0.4709698 -0.4587422 0.75348735 0.0063289674
0.1457143 0.095199987 -0.68000001 -0.62919658 -0.44296321 0.63866681 0.0073064598
0.14791448 0.094339617 -0.67940009 -0.59800261 -0.45820442 0.65760297 0.0078293867
0.2179267 0.093766667 -0.67900002 0.48027113 -0.45599917 0.74926925 0.0066471118
0.21938145 0.094482392 -0.67949998 0.4878445 -0.45252755 0.74647605 0.0069231982
0.14636169 0.097445145 -0.67940009 -0.626917 -0.44322503 0.64072359 0.0072948048
0.22027117 0.097358808 -0.67925 0.49494848 -0.44945738 0.74364918 0.0071070148
0.22213329 0.097790472 -0.68000001 0.52458239 -0.43710977 0.73058081 0.0097831301
0.14499523 0.10033142 -0.6796667 -0.65822411 -0.42321256 0.62260121 0.007296165
0.22293997 0.10063001 -0.67950004 0.52847475 -0.43555206 0.72870356 0.010006483
0.1405333 0.1042667 -0.68000001 -0.70960408 -0.3957606 0.58295423 0.0070643383
0.1426219 0.10378381 -0.6796667 -0.69217426 -0.40415835 0.59795552 0.0076323859
0.1442067 0.10346665 -0.67900002 -0.67440009 -0.41200215 0.61273062 0.0074369269
0.2218067 0.10282 -0.67900002 0.52098769 -0.43777114 0.73275393 0.0089645535
0.22633335 0.10282 -0.67900002 0.56651479 -0.41440579 0.7122702 0.012223889
0.14046443 0.1068041 -0.6796667 -0.72231549 -0.38818324 0.57234091 0.0077600665
0.14212063 0.10588954 -0.67933339 -0.70081544 -0.39901829 0.59130538 0.0074431347
0.1379429 0.10944763 -0.68000001 -0.74775988 -0.37115383 0.55054522 0.0078645889
0.13910156 0.1093397 -0.67933339 -0.7405144 -0.37633198 0.55678785 0.0080487998
0.13729525 0.1126857 -0.68000001 -0.76847076 -0.35312894 0.53362221 0.0085203312
0.1390333 0.11251999 -0.67900002 -0.7518025 -0.36284241 0.55057997 0.0083845044
0.13649645 0.11514927 -0.67925006 -0.77980828 -0.3423188 0.5241344 0.0087136831
0.13355967 0.11931904 -0.6796667 -0.81119066 -0.31083259 0.49533096 0.0085973451
0.13515329 0.1170467 -0.67900002 -0.79231346 -0.32765368 0.51466721 0.0090947589
0.1314667 0.1217524 -0.68000001 -0.82691318 -0.29525352 0.47858125 0.0079372684
0.13266429 0.1216624 -0.67949998 -0.81863678 -0.30174875 0.48865288 0.0082493154
0.1314667 0.1236952 -0.68000001 -0.83016866 -0.29136008 0.4753201 0.0077055804
0.13266429 0.1242519 -0.67949998 -0.82679522 -0.2933479 0.47995481 0.0077478765
0.13146672 0.12758097 -0.68000001 -0.84025133 -0.27742121 0.46584898 0.0075626704
0.13263176 0.12745523 -0.67933339 -0.83471459 -0.28307548 0.47235557 0.0077987295
0.130906 0.13090667 -0.67933339 -0.84809345 -0.26376498 0.45952767 0.0074203517
0.13256671 0.12998 -0.67900002 -0.83945775 -0.27525356 0.46855748 0.0075513446
0.12887619 0.1340571 -0.68000001 -0.86531633 -0.24303958 0.43835986 0.006515054
0.1304749 0.13306287 -0.67933339 -0.85550267 -0.25345781 0.45152435 0.0070807436
0.12887619 0.13664763 -0.68000001 -0.87041414 -0.23248971 0.43396741 0.0061512799
0.12813385 0.13978329 -0.67949998 -0.87718153 -0.21338952 0.43013656 0.0061415425
0.1286867 0.1442067 -0.67900002 -0.8808217 -0.18388781 0.43627787 0.006213774
0.12794957 0.14909494 -0.6796667 -0.88987637 -0.1515995 0.43027622 0.0047385655
0.1275336 0.15148738 -0.67974997 -0.89483154 -0.13919719 0.42414692 0.0047252793
0.1249905 0.154781 -0.68000001 -0.90660489 -0.11957405 0.40468472 0.0042647361
0.12659301 0.15376633 -0.67933339 -0.89875042 -0.12733977 0.41956189 0.0044475393
0.1249905 0.15607619 -0.68000001 -0.90747684 -0.10914472 0.40567613 0.0044547389
0.17678569 0.077785723 -0.67500001 -0.10983204 -0.58527035 0.80336517 0.011971562
0.17859159 0.077127628 -0.67600006 -0.084849678 -0.58593857 0.80590105 0.01202049
0.18146928 0.07650844 -0.6767143 -0.028558128 -0.5874539 0.80875349 0.012017958
0.18405508 0.076892383 -0.67620009 0.015183239 -0.5862143 0.81001377 0.011339761
0.18698099 0.07737048 -0.67700005 0.0702378 -0.57770222 0.81322002 0.010895065
0.1937867 0.077900954 -0.67600012 0.17835367 -0.5600543 0.80902982 0.0092807282
0.1950743 0.077900954 -0.67600012 0.19367318 -0.55579853 0.80844218 0.0086107031
0.16465721 0.080714293 -0.67799997 -0.32207686 -0.55992699 0.76337951 0.0094342567
0.16682701 0.080515876 -0.67633337 -0.29102832 -0.56386894 0.77288699 0.009405911
0.16975045 0.080045715 -0.676 -0.2350992 -0.57357281 0.78469259 0.010433444
0.17248274 0.07928735 -0.67685723 -0.19184048 -0.58139169 0.79068381 0.010960292
0.17559835 0.079347856 -0.676 -0.13243164 -0.58385956 0.80098063 0.011978203
0.17871425 0.079714283 -0.67500001 -0.080631666 -0.58088011 0.8099857 0.012170286
0.18135265 0.079743572 -0.67524999 -0.030278232 -0.58152616 0.81296402 0.01174887
0.18450001 0.079714283 -0.67500007 0.025475917 -0.5762375 0.81688517 0.010206488
0.18785332 0.07977286 -0.67550004 0.087459981 -0.56891227 0.81773442 0.010496049
0.19045199 0.079069398 -0.67657155 0.13372569 -0.56684577 0.81289804 0.0097295968
0.19347934 0.0795049 -0.6755715 0.17926118 -0.5571577 0.8108272 0.0086616892
0.19693504 0.079468384 -0.67620009 0.22649652 -0.54471153 0.80745816 0.0072354604
0.1995257 0.080714293 -0.67799997 0.27007696 -0.53569245 0.80005747 0.0074939532
0.1607829 0.083297148 -0.67799997 -0.39104164 -0.54485726 0.7417661 0.008840383
0.163164 0.082549058 -0.6771667 -0.35427696 -0.55298787 0.75411689 0.0094117038
0.16623977 0.081994519 -0.67524999 -0.28983599 -0.56200898 0.77468771 0.0092259264
0.16971424 0.081642851 -0.67500001 -0.2365409 -0.57199365 0.78541178 0.010537259
0.17228575 0.081642851 -0.67500001 -0.18928953 -0.57308114 0.79733771 0.010963204
0.1806429 0.081642851 -0.67500001 -0.040941626 -0.574579 0.81742442 0.011114792
0.18964291 0.081642851 -0.67500001 0.12360321 -0.56017709 0.81909949 0.0095824152
0.19414285 0.081642851 -0.67500001 0.19069503 -0.54693294 0.81516856 0.0077728056
0.19692855 0.082071431 -0.67500007 0.23308201 -0.53644782 0.81110823 0.0067682806
0.19965549 0.082437389 -0.67625004 0.26939595 -0.53118956 0.80328292 0.0067969463
0.20210861 0.083297148 -0.67799997 0.30881509 -0.52380961 0.79388714 0.0075033177
0.1582 0.085234284 -0.67799997 -0.43121439 -0.53405517 0.72721332 0.0082005365
0.16046563 0.085709848 -0.67666668 -0.39539507 -0.53984368 0.74312276 0.0091227163
0.16307147 0.084642872 -0.67500007 -0.34429398 -0.55097163 0.76019204 0.0094805937
0.1999286 0.084214292 -0.67500001 0.27759162 -0.52489614 0.80462843 0.0065579736
0.20271429 0.085500002 -0.67500007 0.31381756 -0.51496255 0.79770422 0.0070372387
0.20552717 0.086011909 -0.67650008 0.3548083 -0.50660366 0.78578866 0.0074166982
0.2072743 0.085879996 -0.67799997 0.3715764 -0.50084919 0.78171676 0.0064489068
0.15786503 0.088644095 -0.67657149 -0.44750631 -0.51832139 0.72875303 0.0081662731
0.16049998 0.088500008 -0.67500007 -0.39371377 -0.53270495 0.74914283 0.0090069175
0.2037857 0.088071428 -0.67500001 0.33469447 -0.50583476 0.7950539 0.0073769004
0.20603047 0.088543497 -0.67533338 0.36301962 -0.49834439 0.78731793 0.0065378165
0.20890322 0.088331126 -0.67700005 0.39091527 -0.49167898 0.77809829 0.0065074507
0.2117943 0.089754291 -0.67799997 0.42796314 -0.47841778 0.76678807 0.0065846075
0.1545338 0.0919462 -0.67750001 -0.49663934 -0.49908531 0.71011496 0.0079028839
0.15733543 0.091211252 -0.67540002 -0.45150068 -0.51440603 0.72906351 0.0089534195
0.1600714 0.090642862 -0.67500001 -0.40821314 -0.52600712 0.74610889 0.0095377443
0.2084405 0.090710007 -0.67550004 0.38731056 -0.48835984 0.78198165 0.0060585714
0.21200953 0.091906667 -0.67799997 0.43046004 -0.47441092 0.76787919 0.0064169345
0.2141619 0.091906667 -0.67799997 0.44808385 -0.46786049 0.76179224 0.0060891896
0.14894 0.095423818 -0.67700005 -0.57594764 -0.46332374 0.67350966 0.0068322369
0.15129459 0.09463916 -0.67600006 -0.54183328 -0.47552708 0.69303006 0.0067749484
0.15420265 0.094270483 -0.67519999 -0.50422084 -0.49428052 0.70813 0.0085445205
0.1562143 0.093857139 -0.67500001 -0.4750523 -0.50251216 0.72236192 0.0085352976
0.2122995 0.093926191 -0.67550004 0.42969641 -0.47183353 0.76989228 0.0068931202
0.2143911 0.094546035 -0.67533338 0.44859061 -0.46456963 0.76350611 0.0061466037
0.21696126 0.094825409 -0.67733335 0.47343686 -0.45602709 0.75358927 0.0062753703
0.14862818 0.097644225 -0.67642862 -0.58399361 -0.45872486 0.66971856 0.0070413034
0.15149997 0.097500011 -0.67500007 -0.54609722 -0.47515646 0.68993068 0.007925828
0.21768881 0.097894527 -0.67625004 0.47675222 -0.45375225 0.75287205 0.0064089089
0.1465771 0.10073145 -0.67799997 -0.62869251 -0.4354423 0.64431024 0.0067798039
0.14837372 0.10024573 -0.67559999 -0.60001838 -0.44792572 0.66282761 0.0072100451
0.21809 0.10035954 -0.67550004 0.47542369 -0.45487136 0.75303674 0.0065408535
0.2201848 0.1007473 -0.67666674 0.4952814 -0.4474251 0.74465239 0.0071161133
0.14571589 0.10380542 -0.67700005 -0.64838451 -0.42319062 0.63285643 0.0070097153
0.14721429 0.10285715 -0.67500001 -0.61357486 -0.43754041 0.65733117 0.0065143695
0.22363244 0.10309907 -0.67799997 0.51940691 -0.43847218 0.73345655 0.0081059905
0.2253543 0.10396 -0.67799997 0.54333186 -0.42534146 0.7237922 0.0096117519
0.142957 0.10684079 -0.67716664 -0.68572515 -0.40359277 0.6057176 0.0072547505
0.14539289 0.10615 -0.67550004 -0.65144241 -0.41828665 0.63297635 0.0068190023
0.14055714 0.1096095 -0.67700005 -0.7108174 -0.39001098 0.5853461 0.0075832927
0.14271425 0.10928575 -0.67500001 -0.68368936 -0.40078661 0.60986799 0.0072513549
0.14034985 0.11266574 -0.67600006 -0.7188372 -0.37723428 0.58392411 0.008146299
0.1420714 0.11185715 -0.67500001 -0.6929391 -0.39272606 0.60465002 0.007295059
0.13710664 0.11644384 -0.67799997 -0.77369058 -0.34120148 0.5338394 0.0084405551
0.13955064 0.11563305 -0.67614293 -0.74133879 -0.36015111 0.56631082 0.0088067017
0.1349543 0.1188114 -0.67799997 -0.79710877 -0.32133406 0.51123577 0.0087123718
0.13658807 0.1185481 -0.67650008 -0.77323699 -0.33459538 0.53865618 0.0081392182
0.13895956 0.11837335 -0.67550004 -0.75084388 -0.34685639 0.56207126 0.0081106806
0.13391241 0.12167999 -0.67600012 -0.79802811 -0.3175295 0.51217782 0.0087115197
0.13601455 0.12122309 -0.67525005 -0.77702743 -0.32856444 0.53691143 0.0078322478
0.13821431 0.1202143 -0.67500001 -0.75837177 -0.34035796 0.55590343 0.007727412
0.13381284 0.12480667 -0.67550004 -0.80598497 -0.30614674 0.5066185 0.0086785927
0.13316999 0.12737955 -0.67550004 -0.81590956 -0.29535538 0.49704802 0.0081670098
0.13178571 0.13178571 -0.67500001 -0.83187491 -0.26702031 0.48650211 0.0076534809
0.13283807 0.13026479 -0.676 -0.82837373 -0.27990404 0.48523262 0.0078866454
0.1308369 0.1340612 -0.67675 -0.84700948 -0.25333375 0.46732956 0.0078502344
0.12977047 0.13620603 -0.67566675 -0.85082716 -0.24115646 0.46683696 0.0076624062
0.1284972 0.14012 -0.67799997 -0.87094682 -0.21482533 0.44192949 0.0067519066
0.1293419 0.13963717 -0.67566675 -0.85636711 -0.21759826 0.46828017 0.0066495254
0.1284972 0.14205715 -0.67799997 -0.87366301 -0.20168537 0.44275939 0.0065158913
0.12931001 0.14282045 -0.67550004 -0.85985833 -0.19856466 0.47033584 0.0061874692
0.1284972 0.14593139 -0.67799997 -0.87885529 -0.17069934 0.44550559 0.0053004692
0.1292143 0.14528576 -0.67500001 -0.86037189 -0.18351631 0.47548079 0.00591947
0.1284972 0.1478686 -0.67799997 -0.88104874 -0.16310573 0.44401547 0.0052924436
0.12931001 0.14796714 -0.67550004 -0.86588538 -0.16747279 0.47137597 0.0056441352
0.1281181 0.15193905 -0.67600012 -0.87742913 -0.14250396 0.45805109 0.0051357974
0.12940571 0.15000761 -0.67600012 -0.87165058 -0.15411647 0.46526688 0.0052012228
0.12591431 0.1556171 -0.67799997 -0.89418626 -0.11874075 0.43166149 0.0046333717
0.12761453 0.15468547 -0.67675 -0.88242304 -0.12604584 0.45325702 0.0047306516
0.1292143 0.1536428 -0.67500001 -0.86854243 -0.13791785 0.47603858 0.0052115819
0.12591431 0.1575543 -0.67799997 -0.8951965 -0.10223165 0.43378791 0.0044128699
0.12767735 0.15756838 -0.67640001 -0.88065004 -0.1106658 0.46066102 0.0046427785
0.1292143 0.15685715 -0.67500001 -0.87161297 -0.11684505 0.47606525 0.0050467686
0.12591431 0.16013715 -0.67799997 -0.89426076 -0.086620957 0.43908361 0.004060572
0.12726974 0.16047087 -0.67560005 -0.88151968 -0.079836085 0.4653486 0.0045228447
0.1292143 0.1613571 -0.67500001 -0.87141854 -0.080848478 0.48383182 0.0046551134
0.12591431 0.16271999 -0.67799997 -0.89442754 -0.062409978 0.44283679 0.0037535308
0.12737955 0.16340667 -0.67550004 -0.88108689 -0.063009165 0.46873847 0.0041740662
0.1292143 0.16328575 -0.67500001 -0.87410009 -0.065957449 0.48124686 0.0046337936
0.12748937 0.16634117 -0.67540002 -0.88245821 -0.046285853 0.46810806 0.0034739962
0.12921432 0.1665 -0.67500007 -0.87412566 -0.052978277 0.4828018 0.0036053169
0.1668952 0.082805723 -0.67400002 -0.28082979 -0.5599829 0.77945739 0.0099378256
0.1694629 0.082805723 -0.67400002 -0.24474418 -0.56378502 0.78882617 0.010872017
0.17299335 0.082484767 -0.67400002 -0.17665076 -0.57231814 0.80077863 0.011545848
0.17570794 0.08272256 -0.67333341 -0.12396777 -0.56957084 0.81253982 0.011596017
0.17844948 0.082163818 -0.67400002 -0.080245979 -0.57412255 0.8148275 0.011513994
0.18187128 0.082734436 -0.67342871 -0.014020831 -0.56942022 0.82192695 0.01023817
0.18468574 0.082722552 -0.67333341 0.041004457 -0.56460506 0.82434201 0.0095310826
0.18747212 0.082882188 -0.67314297 0.08820948 -0.55587262 0.82657409 0.0090377023
0.19076538 0.082550168 -0.67366672 0.14782241 -0.55166292 0.82086331 0.0086745098
0.1938552 0.082805723 -0.67400002 0.19020161 -0.54327232 0.81772768 0.0079666423
0.19578101 0.082805723 -0.67400002 0.20942117 -0.53924346 0.81569558 0.0068434821
0.16411364 0.085801266 -0.67400002 -0.33025292 -0.55276823 0.76510155 0.01028009
0.16664729 0.085245401 -0.6730001 -0.2829597 -0.55910844 0.77931488 0.0094608534
0.16937798 0.085374162 -0.67257154 -0.23817539 -0.56250536 0.79174501 0.010828259
0.17263977 0.085116908 -0.67325008 -0.18405893 -0.56441039 0.80471313 0.011247219
0.17535999 0.085120007 -0.67200011 -0.12799507 -0.566055 0.81437033 0.010904024
0.17851581 0.084707819 -0.67280012 -0.075391583 -0.56637698 0.82069069 0.011308689
0.1803752 0.084089532 -0.67400002 -0.042735357 -0.57103193 0.81981468 0.010993969
0.1910758 0.085476577 -0.67280012 0.15491417 -0.54297608 0.82533544 0.0077271303
0.19366348 0.085287623 -0.67333341 0.19043869 -0.5388273 0.8206085 0.0068378611
0.19632608 0.085330479 -0.67366672 0.23042804 -0.53140861 0.81517351 0.0060369866
0.199449 0.085740134 -0.67400008 0.27244574 -0.52330887 0.80741638 0.0059240353
0.16111811 0.089224763 -0.67400002 -0.38309637 -0.53336334 0.75416225 0.0092908423
0.16352254 0.088495247 -0.67333341 -0.3440071 -0.54418564 0.76519346 0.0094736544
0.1664 0.087680012 -0.67200011 -0.28968504 -0.55318886 0.78106636 0.0098908739
0.16832 0.087680012 -0.67200011 -0.25639856 -0.55496532 0.79137433 0.010456848
0.19673601 0.088192008 -0.67200011 0.2424725 -0.52486646 0.81591803 0.0068568136
0.19997716 0.088450484 -0.67300004 0.28975981 -0.51156569 0.80891281 0.0058300029
0.20262794 0.088796824 -0.67400002 0.32510424 -0.50375652 0.80033529 0.006373784
0.2047676 0.089224763 -0.67400002 0.34859893 -0.49899709 0.7933982 0.006733241
0.15781018 0.092464142 -0.67266673 -0.43923703 -0.51388854 0.73687816 0.0088758003
0.16095749 0.090846986 -0.67333341 -0.38552427 -0.53078282 0.7547453 0.0091893598
0.16320001 0.090240002 -0.67200011 -0.3482419 -0.5394811 0.76660806 0.0094581991
0.20032001 0.090240002 -0.67200011 0.29291561 -0.50649369 0.81096524 0.0062740706
0.2025419 0.090374291 -0.6730001 0.32322147 -0.50165105 0.80241764 0.0062488881
0.2056438 0.091182873 -0.67266679 0.35494521 -0.49194816 0.79498482 0.0059476537
0.20798473 0.092128262 -0.67333341 0.37883845 -0.48691553 0.78701627 0.0062952028
0.155341 0.095643811 -0.67400002 -0.49415982 -0.49642769 0.71369863 0.0095438194
0.1568 0.094080001 -0.67200011 -0.45075053 -0.51001364 0.73260504 0.0093483627
0.2099029 0.093076192 -0.67400002 0.40128329 -0.47926736 0.78056049 0.0062890421
0.21161465 0.095215879 -0.67400002 0.4168061 -0.47003302 0.77803701 0.0063291066
0.15254569 0.098065719 -0.6730001 -0.53075421 -0.47816104 0.69975853 0.0087658539
0.15435381 0.097031914 -0.67250013 -0.49852976 -0.49137482 0.71415603 0.0084625529
0.20928 0.096640013 -0.67200011 0.39489385 -0.47152153 0.78849632 0.0069768871
0.21141335 0.097066686 -0.67200011 0.41261715 -0.46699643 0.78208786 0.0069455719
0.21423763 0.097496666 -0.67350006 0.43426493 -0.46359915 0.77232748 0.0069546048
0.1495638 0.100779 -0.67400002 -0.57281357 -0.45722556 0.68031567 0.0070022461
0.15174475 0.10046856 -0.67300004 -0.54414034 -0.46961358 0.69525129 0.0080081122
0.21478362 0.10028305 -0.67240018 0.4344745 -0.45993283 0.77439892 0.0072282539
0.21717398 0.10100508 -0.67266679 0.45177376 -0.45465836 0.76758468 0.006945177
0.1469962 0.1046305 -0.67400002 -0.62048358 -0.4324272 0.65422225 0.0068907132
0.14870064 0.10319208 -0.6730001 -0.58753127 -0.44539535 0.67559606 0.0065270821
0.1504 0.10304 -0.67200011 -0.57010412 -0.4532294 0.68524766 0.0065919179
0.1454943 0.10639904 -0.6730001 -0.62806624 -0.42709374 0.65047956 0.0060837045
0.14399999 0.10944 -0.67200011 -0.65326118 -0.41119459 0.63574272 0.0066411234
0.14271764 0.11256997 -0.67350006 -0.68363583 -0.39556831 0.61332512 0.0078046573
0.1422905 0.11537145 -0.6730001 -0.69609207 -0.38417765 0.60651737 0.0077799647
0.14043806 0.11863367 -0.67333341 -0.72793746 -0.3604677 0.58324099 0.0081402315
0.14144 0.11712 -0.67200011 -0.70386583 -0.37817144 0.60129791 0.0077697905
0.13701713 0.1220546 -0.67333341 -0.76256591 -0.33578956 0.55293632 0.0081525724
0.1386514 0.1206781 -0.67400002 -0.75306112 -0.34337887 0.56123966 0.0078070294
0.1357346 0.124193 -0.67333341 -0.77939868 -0.32082954 0.53815061 0.0074816835
0.13389271 0.12748507 -0.67266679 -0.79125828 -0.30450901 0.53026843 0.0074583585
0.13504001 0.12736002 -0.67200011 -0.78250188 -0.31038588 0.53976977 0.0075805439
0.13346477 0.13090351 -0.67266679 -0.80389673 -0.28261831 0.52333254 0.0071815769
0.13504 0.12992001 -0.67200011 -0.78822672 -0.2949928 0.54007214 0.007153959
0.1315905 0.1341581 -0.67400002 -0.8289631 -0.25176659 0.4994334 0.0070768981
0.1330381 0.1330381 -0.67266673 -0.8141619 -0.26771322 0.51523781 0.0073859761
0.13034669 0.13631999 -0.67200011 -0.83009189 -0.24152653 0.50260568 0.0072316588
0.12992001 0.13951999 -0.67200011 -0.83487648 -0.2229813 0.50325012 0.0068852124
0.12992001 0.14208001 -0.67200011 -0.83817738 -0.20967433 0.50348324 0.006919283
0.12992001 0.14592001 -0.67200011 -0.84558266 -0.18235397 0.50173408 0.0063344962
0.12992001 0.14783999 -0.67200011 -0.84656316 -0.17384925 0.50309771 0.0060175597
0.1290229 0.1514895 -0.67400002 -0.86365026 -0.14805572 0.4818587 0.0055014645
0.1290229 0.1546991 -0.67400002 -0.86584473 -0.12989672 0.48315609 0.0053430772
0.1290229 0.1585505 -0.67400002 -0.86762583 -0.10489241 0.48602781 0.0052842409
0.12962097 0.1607981 -0.67266673 -0.86189759 -0.086122096 0.49971551 0.0050998479
0.12992001 0.16384 -0.67200011 -0.85958022 -0.067406237 0.50653541 0.0046142987
0.12992001 0.16576 -0.67200011 -0.86223274 -0.056877188 0.50330871 0.0048052953
0.17509905 0.086271428 -0.671 -0.12883504 -0.56464314 0.81521761 0.011293254
0.1782943 0.086271428 -0.671 -0.072888501 -0.5628261 0.82335538 0.010782941
0.18148956 0.085632384 -0.671 -0.013844004 -0.55977249 0.82853073 0.010174154
0.1846848 0.085632384 -0.671 0.048478693 -0.55160797 0.83269346 0.0088671865
0.18780972 0.085600242 -0.67075002 0.098698497 -0.54446673 0.8329553 0.007729141
0.16670793 0.089208893 -0.67066669 -0.28032467 -0.55126411 0.78582823 0.0098059019
0.16964039 0.088789254 -0.67071432 -0.22879516 -0.55520374 0.79962593 0.010009301
0.17263213 0.088914558 -0.67028576 -0.18042758 -0.55643564 0.81106424 0.010658178
0.17557001 0.088502139 -0.66975003 -0.11950371 -0.55658787 0.82214886 0.011149591
0.17857783 0.08865048 -0.66966671 -0.065473273 -0.55393308 0.82998276 0.010566032
0.18152797 0.088771306 -0.66937506 -0.0098640518 -0.55126745 0.8342703 0.010467214
0.18465592 0.088455647 -0.66957152 0.049211979 -0.54534382 0.83676654 0.0092241988
0.18750668 0.08865048 -0.66966671 0.098482072 -0.53776997 0.83732003 0.0076272837
0.19015241 0.088695243 -0.67000002 0.13633382 -0.5340929 0.83436078 0.0069746538
0.19314314 0.088770345 -0.67057151 0.18517889 -0.52652687 0.82974589 0.0063096201
0.1606084 0.092123054 -0.67080003 -0.38550916 -0.52461815 0.75905102 0.0094462084
0.16362646 0.091584198 -0.67060006 -0.33602768 -0.53581649 0.77458763 0.0096180886
0.1664761 0.091457739 -0.67037505 -0.28977251 -0.54580152 0.78621411 0.010621429
0.16954307 0.091782629 -0.66925001 -0.22691064 -0.54848772 0.80478126 0.010898705
0.17266572 0.09174858 -0.66900009 -0.16930981 -0.54851753 0.81881785 0.01070316
0.17521431 0.091111436 -0.66900003 -0.12158508 -0.55099219 0.82560563 0.010328408
0.1790372 0.091111436 -0.66900003 -0.051973574 -0.54892248 0.83425581 0.01079101
0.1879572 0.091111436 -0.66900003 0.10680763 -0.52762014 0.84273905 0.0074714851
0.19050571 0.09174858 -0.66900009 0.14609158 -0.52142239 0.84069967 0.006576051
0.19410895 0.0915021 -0.67000008 0.2017045 -0.51286715 0.83443552 0.0053723343
0.19663107 0.091292381 -0.67033339 0.23840868 -0.51115471 0.82576156 0.0064534782
0.19907694 0.091556959 -0.67040008 0.2720792 -0.50420523 0.81960356 0.0061247265
0.2025781 0.092022859 -0.671 0.31993306 -0.49509081 0.80779207 0.0057488969
0.20498145 0.091953814 -0.67050004 0.3388994 -0.49096325 0.80255979 0.0058722873
0.15800554 0.09465047 -0.67060006 -0.43365908 -0.51265794 0.74102741 0.0088568581
0.16067949 0.094367623 -0.66949999 -0.38544068 -0.52172452 0.76107752 0.009177587
0.16289619 0.094084762 -0.66900003 -0.34848055 -0.52741635 0.77485043 0.01006995
0.16629431 0.093659997 -0.66900003 -0.29456893 -0.53764111 0.79004502 0.011529375
0.19390385 0.094084762 -0.66900003 0.20600599 -0.50469214 0.83835995 0.0062029255
0.19638667 0.094367146 -0.66949999 0.24051268 -0.49718922 0.83364058 0.0058571813
0.1990857 0.094438098 -0.67000002 0.27087069 -0.49250346 0.8270849 0.0064063845
0.20237651 0.094484769 -0.67033339 0.31319639 -0.49013904 0.81343204 0.0058020009
0.20562051 0.094508573 -0.67050004 0.35393322 -0.48363683 0.80051643 0.0056495066
0.20832956 0.094579048 -0.671 0.37765127 -0.47709653 0.79357314 0.0060036867
0.15528861 0.09777429 -0.671 -0.48287946 -0.49280792 0.72385609 0.0091453092
0.15753049 0.097579375 -0.66966671 -0.44212079 -0.50315726 0.74253756 0.0091726743
0.16056 0.096208572 -0.66900003 -0.38954741 -0.51656723 0.76250321 0.0096393898
0.19624004 0.096208572 -0.66900003 0.24147573 -0.48999336 0.83761328 0.006134843
0.1994257 0.096633337 -0.66900003 0.27992553 -0.48494846 0.82853287 0.0063497513
0.20249939 0.09710604 -0.6693334 0.31603447 -0.47983906 0.81845993 0.0063827522
0.20541576 0.097603977 -0.66983336 0.34858322 -0.47576344 0.80755115 0.0060687796
0.20833525 0.098102234 -0.67033339 0.38032696 -0.46740639 0.79804927 0.0058166734
0.21072811 0.098339528 -0.67050004 0.40544572 -0.46245763 0.78850913 0.0068457252
0.1527324 0.1016086 -0.671 -0.52865994 -0.4714573 0.70586592 0.0080017969
0.15464956 0.10033049 -0.671 -0.49981606 -0.48189101 0.71969777 0.0080510024
0.15745208 0.10071872 -0.6693334 -0.45296904 -0.49351776 0.74246836 0.0095097451
0.20547497 0.10050603 -0.66933334 0.35035333 -0.46190652 0.81479752 0.0059389719
0.20860492 0.10079382 -0.66983336 0.38553372 -0.45566884 0.80232763 0.0070290579
0.21184811 0.10081857 -0.67000002 0.40713698 -0.45435429 0.79233932 0.0068598147
0.214081 0.1016086 -0.671 0.4247371 -0.45216283 0.78431314 0.007389992
0.15170991 0.10365357 -0.671 -0.54871178 -0.45855495 0.69902986 0.0075093573
0.15447643 0.10340975 -0.67025006 -0.50392991 -0.47349122 0.72239923 0.0078415358
0.1561 0.10258 -0.66900003 -0.47394568 -0.48340231 0.73600113 0.0091051282
0.2057972 0.10258 -0.66900003 0.34909236 -0.45511582 0.81914842 0.0061023058
0.20815313 0.10312038 -0.66920006 0.37219805 -0.44748756 0.81315649 0.0061936206
0.21153145 0.10321715 -0.66900003 0.40445182 -0.44563636 0.79864067 0.0069946726
0.21448022 0.10340975 -0.67025006 0.42463297 -0.44683576 0.7874164 0.0071934848
0.21753572 0.10334524 -0.66983336 0.44541106 -0.44354099 0.77774048 0.0079130717
0.2203486 0.10348064 -0.66933334 0.45968512 -0.44102123 0.77083719 0.0076532252
0.14570285 0.10736 -0.671 -0.61879468 -0.42678785 0.65950376 0.0063818987
0.14857145 0.10676048 -0.67025006 -0.58956462 -0.43933043 0.67779219 0.0066642268
0.15144099 0.10613587 -0.67000002 -0.55551857 -0.45068648 0.698771 0.0076315873
0.1543038 0.1058443 -0.66949999 -0.51088923 -0.46640038 0.72212386 0.0091822194
0.2083457 0.10576575 -0.66900003 0.37308609 -0.44094938 0.81631517 0.0063083679
0.21216862 0.10640287 -0.66900003 0.40741158 -0.43000036 0.805677 0.0076028821
0.21463808 0.1062831 -0.66925007 0.4243885 -0.43100476 0.79632241 0.0076153581
0.21767592 0.1066079 -0.66914296 0.4430753 -0.42812869 0.78764838 0.0079386048
0.22045146 0.10640287 -0.66900009 0.45636284 -0.42977712 0.77911782 0.0073829396
0.14559379 0.10983427 -0.67050004 -0.62764931 -0.41873994 0.65628749 0.0061437394
0.14860162 0.10969778 -0.66966671 -0.5943107 -0.43347794 0.67741537 0.0067317979
0.1510029 0.1089514 -0.66900003 -0.56154639 -0.44327861 0.69869149 0.0079870922
0.21416026 0.10962974 -0.66925001 0.42428878 -0.41510555 0.80477726 0.0082902182
0.21742746 0.10967063 -0.66950005 0.44387469 -0.4155679 0.79390091 0.0084400391
0.22045144 0.10958855 -0.66900003 0.46229187 -0.4109284 0.78576332 0.0081526125
0.1437857 0.11247235 -0.671 -0.65408909 -0.40654129 0.63788068 0.0068710665
0.14559379 0.11238857 -0.67050004 -0.63713694 -0.41175571 0.65154725 0.006809935
0.14767811 0.11198033 -0.66933334 -0.61081433 -0.42519531 0.66791832 0.0065492257
0.2124857 0.1129429 -0.67000002 0.41973859 -0.39952746 0.81498307 0.007614532
0.21472 0.11247235 -0.671 0.43616349 -0.40156618 0.80529881 0.0082484363
0.2175905 0.1123048 -0.67000002 0.44790104 -0.40291992 0.79814804 0.008581073
0.220781 0.1123048 -0.67000002 0.47374183 -0.39701051 0.78609884 0.0089983242
0.14341259 0.11594355 -0.67075002 -0.67156017 -0.39289701 0.62820292 0.007114179
0.14544904 0.11546585 -0.66983336 -0.6500178 -0.40283599 0.64436013 0.0069456045
0.14718001 0.11468575 -0.66900003 -0.62318093 -0.41503018 0.6628691 0.0071424441
0.2121686 0.1140486 -0.66900003 0.40510693 -0.40156555 0.82136071 0.0065055029
0.21503744 0.11421903 -0.67000008 0.43110311 -0.39601097 0.81075609 0.0078471918
0.21790284 0.1140486 -0.66900003 0.44848531 -0.38730454 0.805516 0.0089647593
0.14208132 0.11859333 -0.67020005 -0.68860978 -0.37976003 0.61773694 0.0074730492
0.1446314 0.1178714 -0.66900003 -0.65954554 -0.39335677 0.64052331 0.0074218586
0.13992381 0.12151103 -0.67000002 -0.71941787 -0.35754818 0.59548068 0.0078804912
0.13688396 0.12486992 -0.671 -0.76184934 -0.32816678 0.55847311 0.0081877811
0.13953051 0.12454097 -0.66975003 -0.73433709 -0.34353319 0.58543491 0.008682685
0.13665381 0.12771428 -0.67050004 -0.76856077 -0.31360543 0.55764323 0.0080258446
0.13894883 0.12747593 -0.66925001 -0.74629962 -0.32582194 0.58041096 0.0089312959
0.134839 0.1310048 -0.671 -0.78813273 -0.28896052 0.54345989 0.0072800303
0.13667963 0.13055353 -0.67000002 -0.77578175 -0.29608151 0.55722386 0.0080582034
0.13826001 0.12997714 -0.66900003 -0.75629789 -0.31131914 0.57540756 0.0090420563
0.13395351 0.13395351 -0.67083335 -0.80133426 -0.26721814 0.53521764 0.0072018844
0.13613142 0.13326193 -0.66950005 -0.78348446 -0.27899668 0.55525941 0.0076837377
0.1310048 0.13675615 -0.671 -0.8214485 -0.2388341 0.51786166 0.0070566591
0.13339415 0.13658619 -0.67016673 -0.80898875 -0.24801089 0.53294259 0.00741805
0.1357114 0.1357114 -0.66900003 -0.78983063 -0.26221988 0.55444425 0.0078736413
0.1310048 0.13931236 -0.671 -0.82601148 -0.22668701 0.51606017 0.0066773393
0.1334863 0.13931839 -0.66971433 -0.8131898 -0.23327281 0.53320366 0.007327666
0.13068527 0.14282712 -0.671 -0.83320522 -0.20624763 0.51306051 0.0066600814
0.13315216 0.1424014 -0.66975003 -0.82090664 -0.21374676 0.52955139 0.0070616351
0.1310048 0.14570285 -0.671 -0.83925158 -0.186648 0.51070476 0.0064873071
