# .PCD v0.7 - Point Cloud Data file format
VERSION 0.7
FIELDS x y z normal_x normal_y normal_z curvature
SIZE 4 4 4 4 4 4 4
TYPE F F F F F F F
COUNT 1 1 1 1 1 1 1
WIDTH 478
HEIGHT 1
VIEWPOINT 0 0 0 1 0 0 0
POINTS 478
DATA ascii
0.12284333 0.0089880954 -0.78650004 -0.93928337 -0.073537827 0.33517021 0.0086538531
0.122328 0.014764192 -0.78320009 -0.9510932 -0.20179917 0.23387802 0.0093716616
0.12658313 -0.0007359524 -0.77275014 -0.86979812 -0.30685809 0.38637993 0.016614394
0.1301371 -0.00073523808 -0.77200001 -0.86975414 -0.30668661 0.3866148 0.016562371
0.12627485 0.0053176833 -0.77510011 -0.8883633 -0.29138348 0.35483289 0.012626224
0.13013712 0.0022057144 -0.77200001 -0.86896938 -0.31690016 0.38008744 0.012906285
0.12590006 0.01487739 -0.77681488 -0.91611189 -0.24456228 0.31769228 0.0093151666
0.12538192 0.02003143 -0.77899998 -0.93864703 -0.20975433 0.27376065 0.0073183118
0.13798828 -0.011697141 -0.76085722 -0.71156138 -0.43651342 0.55057824 0.016607558
0.1418667 -0.012304761 -0.76000011 -0.67621434 -0.46443236 0.5718714 0.016689125
0.12914254 -0.0026841271 -0.76899999 -0.84187704 -0.30358878 0.4461804 0.019147972
0.13460198 -0.0054903873 -0.7628606 -0.75888664 -0.38768333 0.52325195 0.015909599
0.1411429 -0.0086857155 -0.76000011 -0.67246908 -0.436445 0.59774685 0.01969987
0.23161909 -0.0094095254 -0.76000011 0.49721286 -0.48327094 0.72057521 0.0065593366
0.12914255 0.0078117466 -0.76900005 -0.86321801 -0.29769173 0.40771854 0.011558909
0.13166882 0.0048877932 -0.76309103 -0.82624388 -0.33073378 0.45600021 0.012815733
0.12900978 0.012972382 -0.76750004 -0.86278605 -0.30106658 0.40615174 0.0094937421
0.13038537 0.011370156 -0.76200008 -0.84145963 -0.31243926 0.4408257 0.0098437928
0.12557079 0.027286351 -0.76066673 -0.88523859 -0.28110227 0.37058628 0.004421826
0.12435048 0.032281905 -0.76000017 -0.90044969 -0.26584697 0.34426108 0.0039627547
0.1642857 -0.02071429 -0.75000012 -0.36073884 -0.5518316 0.7518971 0.0083370181
0.20285714 -0.02071429 -0.75000012 0.28295034 -0.56586945 0.77442282 0.011851176
0.14672104 -0.013053185 -0.75492328 -0.58026928 -0.48471826 0.6544736 0.019960256
0.1547772 -0.015311277 -0.75161302 -0.46213928 -0.47997949 0.74568552 0.011275309
0.16137147 -0.018153142 -0.75040007 -0.39629444 -0.50847322 0.76446426 0.012579736
0.20662422 -0.017790589 -0.7507059 0.38686451 -0.53391743 0.75184309 0.0077449167
0.21516654 -0.014175614 -0.75217873 0.46064186 -0.4973841 0.73513144 0.0040020701
0.22247422 -0.012991684 -0.75500011 0.47244483 -0.49822208 0.72702849 0.0048472439
0.13777392 -0.002164762 -0.75739998 -0.71898365 -0.39841521 0.56949776 0.019004608
0.14421426 -0.0056389789 -0.75321454 -0.62649316 -0.4567138 0.63160014 0.01786877
0.15128574 -0.0081428578 -0.75000012 -0.48952106 -0.46283135 0.73902392 0.02150763
0.21880302 -0.0078696599 -0.75114286 0.45628929 -0.51288915 0.72714829 0.0034742148
0.22538175 -0.0049182242 -0.7546218 0.49297759 -0.50331479 0.70968109 0.0037127291
0.23142475 -0.0043285713 -0.75699997 0.50429094 -0.49838144 0.70519972 0.0046499749
0.13666478 0.0051345164 -0.75480503 -0.73093837 -0.38245857 0.56520307 0.014935717
0.14107506 0.0024289524 -0.75040007 -0.66119921 -0.43160605 0.61362195 0.014702522
0.22685845 0.0034191008 -0.75194442 0.49393207 -0.49120328 0.71746105 0.0025475814
0.23134737 0.0039778352 -0.75418186 0.51623499 -0.48230061 0.70773411 0.0034756884
0.12798153 0.017850099 -0.75580007 -0.8302322 -0.32605004 0.4521125 0.0078423312
0.13352844 0.014729398 -0.75360543 -0.7656377 -0.35908529 0.53371966 0.016435094
0.12827611 0.025728615 -0.75504357 -0.84254909 -0.32809711 0.42715716 0.0054282518
0.13153173 0.023727035 -0.75153846 -0.816414 -0.34714296 0.46147591 0.0076258145
0.12628162 0.035367738 -0.75327289 -0.87975681 -0.27522475 0.38765883 0.0084679276
0.1307143 0.031428576 -0.75000012 -0.80749065 -0.30323803 0.50596994 0.013732022
0.12472135 0.04459225 -0.75171447 -0.86812323 -0.23879577 0.43513069 0.02536262
0.1233912 0.055318229 -0.7516818 -0.86338627 -0.26934585 0.42663428 0.032585327
0.12502356 0.063189261 -0.75205553 -0.93333638 -0.20410889 0.29533532 0.0039884239
0.16740954 -0.02065905 -0.74800003 -0.27348366 -0.57951581 0.76770312 0.011271097
0.17522933 -0.021282289 -0.74653339 -0.15629192 -0.58797187 0.79363841 0.011543406
0.18547145 -0.021318916 -0.7461428 0.023771372 -0.60261095 0.79768097 0.013359101
0.19477439 -0.021296626 -0.74763638 0.18866137 -0.6009357 0.77671313 0.013111684
0.15667088 -0.012106748 -0.74775004 -0.41724229 -0.47957453 0.7719568 0.01928794
0.16513193 -0.01452339 -0.74584007 -0.34284282 -0.49827126 0.79635704 0.019897586
0.17401023 -0.01564567 -0.74389762 -0.20758387 -0.53456885 0.81923449 0.024626557
0.18477142 -0.017700328 -0.74333328 -0.015450703 -0.55627406 0.83085525 0.026546063
0.1953055 -0.016128633 -0.74418753 0.19415742 -0.58884215 0.78458124 0.010395122
0.20437291 -0.013446278 -0.74577779 0.35233819 -0.52499574 0.77474976 0.0083236825
0.21086475 -0.012110475 -0.74800003 0.40301773 -0.51773804 0.75466818 0.0066795116
0.1473798 -0.0021351704 -0.74707144 -0.51863933 -0.43871281 0.73385584 0.024264963
0.15484209 -0.0054877819 -0.74456102 -0.43648154 -0.47179183 0.76609153 0.020537075
0.16380049 -0.0077048619 -0.74252623 -0.34790695 -0.45731449 0.81842786 0.032396652
0.17101336 -0.0091866674 -0.74199998 -0.25567371 -0.4665066 0.84676009 0.031037917
0.20691893 -0.0073120636 -0.74286669 0.37790602 -0.535945 0.75495034 0.0072254739
0.21446137 -0.0049739582 -0.74555171 0.44159251 -0.51026261 0.73798925 0.0035970567
0.14496714 0.004969018 -0.74563837 -0.57411158 -0.43586674 0.69312042 0.026455777
0.15099111 0.0011777778 -0.74199998 -0.46156734 -0.44386914 0.76807272 0.030879362
0.21799299 0.0040433337 -0.74349999 0.4561626 -0.50443244 0.73311901 0.0029671052
0.22370374 0.006953191 -0.74544996 0.49232188 -0.49057144 0.71899843 0.0025999835
0.13795236 0.015849207 -0.74538094 -0.70027393 -0.40084761 0.59070957 0.012164635
0.14189133 0.013033393 -0.74341166 -0.61705118 -0.41650495 0.66766113 0.033903193
0.22621799 0.011853167 -0.74241173 0.51480067 -0.46920061 0.71751726 0.0025543547
0.23108 0.014133334 -0.74199998 0.5346393 -0.46289942 0.70702541 0.0029789575
0.13441072 0.024725379 -0.74478561 -0.7260164 -0.39102218 0.56568706 0.011487164
0.12903063 0.037196327 -0.74500006 -0.82748204 -0.29513782 0.47766849 0.017584078
0.13156125 0.032783341 -0.74510002 -0.79327744 -0.31647387 0.52014917 0.014861623
0.12787549 0.045012735 -0.74400002 -0.83461028 -0.29536501 0.46495715 0.019372804
0.12575048 0.051511429 -0.74599999 -0.86795157 -0.26865488 0.41771361 0.020051148
0.17759678 -0.012535428 -0.73940003 -0.13222417 -0.49901026 0.85644937 0.027257258
0.18501046 -0.012595486 -0.73925936 -0.01096212 -0.54608101 0.83766055 0.018979639
0.19388063 -0.011570679 -0.73949999 0.15536396 -0.57367855 0.80421078 0.012254068
0.15729006 -0.0014735932 -0.73999995 -0.3930355 -0.46373832 0.79402131 0.028817415
0.16592407 -0.0033951262 -0.73823524 -0.3097128 -0.49206111 0.81360543 0.028063314
0.17505544 -0.0047475798 -0.73607999 -0.197347 -0.49088264 0.8485803 0.030280655
0.1847344 -0.0049083368 -0.73514277 -0.008531386 -0.52935791 0.84835571 0.022286855
0.19475554 -0.0049448204 -0.73635405 0.14530374 -0.53443044 0.83262897 0.020404983
0.20372732 -0.0036194904 -0.73817849 0.3311941 -0.5298143 0.78077346 0.0075813746
0.21156599 -0.0010564288 -0.73925 0.40676841 -0.52312374 0.74891979 0.0050712535
0.148624 0.0083112381 -0.73960006 -0.49887401 -0.46167332 0.73347282 0.033387307
0.15511423 0.0050559356 -0.7386539 -0.43137163 -0.45951632 0.77637839 0.030127084
0.16460958 0.0046750032 -0.73350924 -0.323526 -0.49722338 0.80504644 0.030049182
0.17416526 0.002228857 -0.73150009 -0.20233785 -0.49392903 0.84563196 0.033929888
0.18501133 0.0018567195 -0.73122227 -0.03613722 -0.51864183 0.85422754 0.037117694
0.19488721 0.0033590754 -0.73144132 0.093765035 -0.5333088 0.84070796 0.029139878
0.2051049 0.0045991763 -0.73340911 0.33871076 -0.51383168 0.78819543 0.010345811
0.21334003 0.0056862338 -0.73818177 0.41500556 -0.50825095 0.75461996 0.0072325245
0.1461816 0.015460046 -0.73723245 -0.54602087 -0.4751859 0.68997073 0.035387035
0.15422466 0.013630638 -0.73275632 -0.40842769 -0.51295984 0.75502259 0.032048997
0.16197793 0.011002668 -0.73120004 -0.34208187 -0.51704061 0.78463304 0.031821258
0.20717333 0.011066668 -0.73133337 0.32792196 -0.5140745 0.79258734 0.01563151
0.21582896 0.013882646 -0.73322231 0.44458246 -0.4981927 0.74441284 0.0091337897
0.22461244 0.016107 -0.73788464 0.51924598 -0.47953501 0.70741051 0.0025408047
0.2304571 0.018323809 -0.74000001 0.53817147 -0.47061899 0.69920617 0.0026960059
0.13790807 0.02589098 -0.7389999 -0.70435524 -0.39475074 0.58996236 0.016685411
0.14386536 0.023461621 -0.7344774 -0.5908556 -0.45776597 0.6643343 0.033794269
0.15107331 0.02018952 -0.73100001 -0.46058467 -0.53649116 0.70713437 0.030402871
0.2193 0.02088571 -0.73100001 0.44650137 -0.50076157 0.74153507 0.0091517502
0.22545773 0.02462193 -0.73441035 0.52527851 -0.48415306 0.69977015 0.0028044642
0.23094584 0.025639171 -0.737625 0.54928821 -0.47710308 0.68604308 0.0028566679
0.13518891 0.035191834 -0.73552835 -0.73828852 -0.38372239 0.55469567 0.014572562
0.2280937 0.034414031 -0.73200011 0.53650832 -0.45664695 0.70967066 0.0024900523
0.23313756 0.034839272 -0.73630786 0.56089401 -0.44784549 0.69629902 0.0031787844
0.12957552 0.047274288 -0.73771435 -0.82889223 -0.31524503 0.46212363 0.015795713
0.13227025 0.044087116 -0.73403579 -0.78916782 -0.35570151 0.50069004 0.018300846
0.12744579 0.055272926 -0.73706251 -0.84639657 -0.3088572 0.4338434 0.020122817
0.13073809 0.053071164 -0.73185718 -0.82979655 -0.33087024 0.44940257 0.01614558
0.12685938 0.06207227 -0.73233342 -0.86865282 -0.29406562 0.39870736 0.015965547
0.12264913 0.074602291 -0.73760003 -0.93205893 -0.21029039 0.29503244 0.0030374224
0.12249459 0.084946461 -0.7331112 -0.93645835 -0.2127853 0.27886954 0.0031945202
0.12265731 0.091678284 -0.73260003 -0.92897856 -0.19580951 0.31409791 0.0019085957
0.16824858 0.0085628573 -0.72899997 -0.25047594 -0.52634072 0.81254375 0.032811809
0.17526264 0.0066058831 -0.72805876 -0.19867468 -0.53176892 0.82325596 0.035622995
0.18461515 0.0067586871 -0.72751725 -0.05963837 -0.52527863 0.84883785 0.038653631
0.1946646 0.008067321 -0.72868752 0.10952277 -0.54641855 0.83032012 0.028907485
0.20064861 0.0090257144 -0.72899997 0.25417981 -0.51782191 0.81685561 0.014916047
0.15716553 0.01734102 -0.7283572 -0.37713623 -0.54208106 0.75094372 0.031493925
0.16535126 0.015010589 -0.72680777 -0.27553102 -0.55634207 0.78394276 0.033744872
0.17472072 0.013094526 -0.7238611 -0.17842413 -0.58992922 0.78749496 0.040768985
0.18497486 0.013053335 -0.72366655 -0.054655258 -0.60951436 0.79088885 0.041685663
0.19511218 0.01332327 -0.7241891 0.091455057 -0.57321686 0.81428403 0.03015551
0.20450982 0.016019652 -0.72551221 0.294016 -0.54376382 0.78605056 0.016378848
0.21248907 0.016993809 -0.72833341 0.40059099 -0.49803352 0.76908356 0.0098737488
0.14613548 0.027619764 -0.72808325 -0.58348942 -0.50303006 0.6375742 0.031658877
0.15461496 0.024729051 -0.72543365 -0.41957852 -0.55843067 0.71561801 0.038964983
0.16352874 0.022126999 -0.72317398 -0.29283798 -0.59158128 0.75118399 0.034670077
0.20826368 0.021788415 -0.72250009 0.33121291 -0.54595876 0.76956296 0.016714353
0.21514985 0.02440902 -0.72547227 0.4365221 -0.50695366 0.74326742 0.0080315713
0.22209547 0.028802624 -0.72874993 0.51214063 -0.48245576 0.71059728 0.0022992431
0.13928214 0.035903573 -0.72850001 -0.69367236 -0.41650325 0.58765954 0.015794719
0.14483029 0.035054203 -0.72494453 -0.63270229 -0.44903252 0.63091809 0.014935471
0.15261629 0.032224938 -0.72272736 -0.49679926 -0.54137933 0.67830586 0.029666992
0.21758002 0.032677997 -0.72322232 0.44856921 -0.50793427 0.73538327 0.0079157371
0.22357422 0.035460334 -0.72639138 0.51835871 -0.4744395 0.71148533 0.0023526654
0.13659282 0.045268144 -0.72554284 -0.71542841 -0.41931349 0.55887246 0.013861434
0.14222875 0.041860782 -0.72272736 -0.64423484 -0.4561778 0.6138919 0.014465327
0.22745565 0.04217913 -0.72408342 0.54076535 -0.4680509 0.69892865 0.0019909616
0.2315881 0.045786828 -0.72300005 0.58711934 -0.46277878 0.66417366 0.0015241408
0.1298314 0.058320004 -0.72899997 -0.83901811 -0.33083168 0.43197116 0.015072868
0.13318644 0.054501932 -0.72565514 -0.79491216 -0.37446463 0.47737917 0.017983625
0.23241526 0.050883807 -0.72200012 0.58389902 -0.46331277 0.66663569 0.0015723372
0.12741715 0.065829478 -0.72759992 -0.86085808 -0.31399134 0.4004159 0.015386495
0.13125846 0.064446822 -0.72357887 -0.84385937 -0.32648581 0.42580312 0.017005689
0.1265071 0.075059563 -0.72621578 -0.88838875 -0.26045072 0.3780621 0.0064221318
0.1309368 0.071315877 -0.72233343 -0.84362334 -0.31573051 0.43429711 0.014545858
0.12532671 0.084937565 -0.72656244 -0.90784848 -0.2304835 0.35026914 0.0034556896
0.1232691 0.094957426 -0.7237916 -0.9287529 -0.19672425 0.31419358 0.0021710675
0.1196171 0.1030229 -0.72600001 -0.93881339 -0.18268035 0.2919887 0.0016628323
0.12209231 0.10344875 -0.72481257 -0.9361819 -0.18424286 0.29936242 0.0016819248
0.1189581 0.1189581 -0.72200012 -0.94224805 -0.16690943 0.29036152 0.0017486805
0.1203333 0.1182705 -0.72200012 -0.94224685 -0.16691454 0.29036254 0.001747626
0.1189581 0.1203333 -0.72200012 -0.94381142 -0.15315974 0.29285151 0.001758191
0.1203333 0.1203333 -0.72200012 -0.94566751 -0.15353505 0.28660068 0.0016733217
0.16937141 0.01851429 -0.72000003 -0.2429186 -0.60939842 0.75473446 0.036672622
0.17491278 0.018208943 -0.71973926 -0.17914943 -0.59721678 0.7818169 0.036031868
0.18507813 0.018507384 -0.71975011 -0.039838623 -0.62261653 0.78151232 0.036526185
0.19465519 0.018751433 -0.71982366 0.15312724 -0.56286645 0.81223983 0.013409087
0.15885714 0.028571434 -0.72000003 -0.4066219 -0.55864549 0.7228927 0.037312321
0.16585606 0.026556043 -0.71789736 -0.27427459 -0.59690851 0.75397187 0.028413832
0.17498362 0.025271222 -0.71524084 -0.18051986 -0.61097425 0.77079386 0.026576707
0.18506171 0.025101433 -0.71486264 -0.013841351 -0.60212511 0.79828167 0.016671328
0.19500022 0.025203463 -0.71627665 0.17708544 -0.57527912 0.79855782 0.012710655
0.20448884 0.025659397 -0.71880466 0.30686089 -0.55318809 0.77448004 0.017495062
0.21160625 0.028494701 -0.71971434 0.40980276 -0.52129459 0.74854094 0.0090374611
0.14898694 0.038702622 -0.71924996 -0.55603009 -0.48315653 0.67630643 0.014383559
0.15558331 0.035532311 -0.71728873 -0.49893716 -0.4935635 0.71235996 0.013860838
0.16438623 0.033614732 -0.7143023 -0.32441205 -0.56671655 0.75735658 0.012182034
0.17505075 0.031109149 -0.71113348 -0.15469176 -0.58310902 0.79753011 0.01340364
0.18452144 0.030640714 -0.71100003 -0.0036137132 -0.60185194 0.79859948 0.01300887
0.19614293 0.031845886 -0.71147078 0.19840802 -0.58170968 0.78882712 0.012688441
0.20551516 0.034366388 -0.71309757 0.36419752 -0.54423088 0.75575984 0.0085521033
0.21389446 0.035718769 -0.71676666 0.45522514 -0.52117074 0.72190803 0.0075262599
0.22011431 0.037714291 -0.72000003 0.49345517 -0.48951581 0.71894103 0.0031988318
0.13880883 0.048668332 -0.71974999 -0.70820713 -0.42011458 0.56740332 0.013294218
0.14549336 0.045788612 -0.71653581 -0.63021874 -0.45243281 0.63097465 0.016735159
0.15311454 0.043040622 -0.71315634 -0.50124198 -0.51381069 0.69624352 0.014384571
0.21627612 0.043803811 -0.71372414 0.48842299 -0.50041091 0.71486485 0.0035921356
0.2239338 0.046261039 -0.71749997 0.54307491 -0.47658062 0.6913324 0.0017561847
0.13717377 0.055485696 -0.7173782 -0.6995731 -0.43091241 0.57001048 0.014002816
0.14289649 0.053085525 -0.71280009 -0.62800795 -0.46725413 0.62231803 0.015947191
0.21847084 0.051284768 -0.71166676 0.48690274 -0.5023765 0.71452326 0.0042769555
0.22543472 0.054257076 -0.71335912 0.5397644 -0.49253297 0.68269014 0.0025226467
0.23076481 0.052726671 -0.71899998 0.56358474 -0.47975186 0.67246586 0.0030419815
0.13517784 0.064704172 -0.71447617 -0.74423629 -0.40638998 0.53005606 0.014762651
0.14016861 0.060942858 -0.71100003 -0.67998308 -0.44246736 0.58467567 0.014481465
0.22892776 0.064457461 -0.71116674 0.54785454 -0.48687661 0.68029875 0.0030130399
0.2320891 0.066274695 -0.71281254 0.57686263 -0.48008579 0.66086847 0.0030049097
0.12949453 0.078512147 -0.71375 -0.8443777 -0.28496647 0.45367432 0.0077596665
0.13196777 0.074240908 -0.71347833 -0.83637029 -0.30270541 0.4570058 0.0072715413
0.12823205 0.084570482 -0.7152105 -0.86447614 -0.26729536 0.42571604 0.006392864
0.13068859 0.080580004 -0.71100003 -0.84367454 -0.2941899 0.44907182 0.0075288583
0.12618342 0.094838232 -0.71680766 -0.90511912 -0.20937756 0.37002754 0.0050199926
0.12324281 0.10467777 -0.71729422 -0.93010175 -0.18724212 0.31599227 0.0018566857
0.12210661 0.11815741 -0.71549994 -0.93697327 -0.1779772 0.30067459 0.0019901742
0.12156156 0.12280017 -0.71527272 -0.94341999 -0.16272849 0.2889258 0.0015108901
0.15890481 0.03989524 -0.70999998 -0.42054275 -0.5206508 0.74301177 0.014642561
0.16613527 0.037906323 -0.70923996 -0.30223417 -0.5557214 0.77448583 0.008873906
0.17498823 0.036498837 -0.70752198 -0.16716993 -0.59092718 0.78921437 0.014071102
0.1847904 0.035798527 -0.70670003 0.013823823 -0.57822162 0.81576264 0.012695926
0.19421849 0.036357049 -0.70802569 0.18322846 -0.57439053 0.79781133 0.012969319
0.20302257 0.038938098 -0.70900005 0.2994895 -0.55024981 0.77944291 0.010173438
0.15660919 0.046289776 -0.70854276 -0.44509119 -0.52006698 0.72898847 0.014382639
0.16512407 0.044926416 -0.70528078 -0.32994589 -0.55877614 0.76085812 0.0053934441
0.17440949 0.043908738 -0.70232499 -0.18090649 -0.58665264 0.78937423 0.0088050552
0.18508498 0.042915724 -0.70206243 -0.0085730627 -0.60614657 0.7953068 0.011463084
0.19510274 0.043841008 -0.70257896 0.21112268 -0.57490581 0.79051274 0.0080559151
0.20513834 0.045118067 -0.70580441 0.3558546 -0.54504174 0.75914228 0.0067522661
0.21238966 0.046542045 -0.70828575 0.42670202 -0.51552188 0.74307638 0.0061093969
0.14603521 0.05626348 -0.70786035 -0.6088888 -0.47408789 0.63599932 0.016009534
0.15440519 0.054484729 -0.70454401 -0.47231641 -0.51535511 0.7150709 0.0042158836
0.16309021 0.052895211 -0.70248401 -0.37763897 -0.54242921 0.75043952 0.0044894349
0.17024291 0.050071429 -0.70099998 -0.26932958 -0.56427926 0.78041685 0.0081190923
0.20612802 0.051400587 -0.70194453 0.35939315 -0.55150974 0.75277734 0.0073960912
0.21466477 0.055104733 -0.70374995 0.46475831 -0.51445222 0.72065157 0.0045723668
0.22344173 0.058507878 -0.70763642 0.53480679 -0.49455082 0.68512857 0.002730862
0.1384353 0.067123443 -0.70906669 -0.71180719 -0.40620312 0.57300061 0.010191559
0.14435092 0.064442441 -0.70475465 -0.62668347 -0.45396787 0.63338852 0.010471448
0.15065525 0.061798099 -0.7015 -0.52673906 -0.50168592 0.68619037 0.008848411
0.21715978 0.062477879 -0.70192319 0.47089827 -0.51880932 0.71350658 0.0046729264
0.2236657 0.063488908 -0.70545 0.53257322 -0.49181786 0.68882591 0.0028529656
0.13636823 0.075183183 -0.70602274 -0.75401145 -0.35555556 0.55231053 0.009549913
0.14225525 0.070942223 -0.70200008 -0.65077913 -0.43277815 0.6238507 0.010699332
0.2283076 0.075656191 -0.70300001 0.60608155 -0.45190695 0.65455723 0.0094560804
0.23208097 0.074668266 -0.70633328 0.64218044 -0.42052472 0.64090812 0.0090341512
0.1291524 0.087228574 -0.70999998 -0.85335404 -0.28590983 0.43593869 0.0075502913
0.13266394 0.084883392 -0.7057001 -0.82817477 -0.31644827 0.46258727 0.0098213013
0.12850893 0.095708415 -0.70681822 -0.87911826 -0.25637165 0.40177703 0.0069147721
0.13210309 0.094166189 -0.7029168 -0.8419261 -0.29671213 0.45069107 0.0082614422
0.23667809 0.098168574 -0.70600003 0.8121528 -0.3156307 0.49069875 0.016172292
0.12607709 0.10480589 -0.70556092 -0.8956601 -0.23734809 0.37611005 0.0066405009
0.13018569 0.1008105 -0.70099998 -0.86449635 -0.26926112 0.4244343 0.0084080035
0.12498919 0.11485718 -0.7034688 -0.90656829 -0.23093474 0.35327473 0.0057857512
0.12455981 0.12456085 -0.70421225 -0.93371439 -0.19188946 0.30225152 0.002079213
0.12301759 0.1344185 -0.70219058 -0.94378501 -0.16745645 0.28500554 0.0010166403
0.1220267 0.14012951 -0.70400012 -0.94971544 -0.15350105 0.27290672 0.00074856344
0.17673266 0.048178785 -0.6993888 -0.11461593 -0.58548105 0.80254292 0.012191444
0.18454055 0.04806092 -0.69840747 -0.0040945732 -0.58974868 0.80757642 0.012076556
0.19375636 0.048525658 -0.6991176 0.17098811 -0.57993895 0.79651362 0.010579186
0.15710859 0.058903951 -0.69942862 -0.42558962 -0.53864533 0.72714144 0.0057527237
0.16625544 0.05619679 -0.69726336 -0.31064242 -0.56291318 0.76591784 0.0086357975
0.17479166 0.055113669 -0.69467646 -0.17815261 -0.56909412 0.80274129 0.0098865954
0.18513803 0.055346571 -0.69393098 0.013159005 -0.59313709 0.80499393 0.011514534
0.19509231 0.05549394 -0.6946336 0.19010575 -0.57611412 0.79495436 0.0098402491
0.20416141 0.055978533 -0.69703037 0.32321036 -0.55911511 0.76349545 0.0068612015
0.21133333 0.058222227 -0.69999999 0.43110195 -0.52393883 0.73460138 0.0066512064
0.14812908 0.068025567 -0.69800007 -0.5601421 -0.4947339 0.66443896 0.010212719
0.15518513 0.065190434 -0.69556093 -0.45653433 -0.52779025 0.71625 0.0045482749
0.16472042 0.063202456 -0.69254184 -0.33594328 -0.55936247 0.75779659 0.0064470223
0.17191777 0.062325209 -0.69018191 -0.1988176 -0.5726217 0.79534644 0.010885169
0.1899143 0.061771434 -0.69000012 0.12065131 -0.57289517 0.81069994 0.014800739
0.19644171 0.062439114 -0.6901179 0.20712794 -0.55497038 0.80567104 0.01012342
0.20546474 0.064137861 -0.69184804 0.36735231 -0.54236871 0.75557166 0.0050688507
0.21435414 0.066130504 -0.69567657 0.46795496 -0.51452261 0.71852952 0.0046585146
0.22194429 0.068360664 -0.69690007 0.50697982 -0.49843329 0.70323241 0.0044439719
0.1386003 0.077962235 -0.69966668 -0.72088128 -0.38748488 0.57461786 0.0069496226
0.14536367 0.07560084 -0.69560951 -0.63551605 -0.44579831 0.63038337 0.009501515
0.15407355 0.073051296 -0.69136858 -0.48858348 -0.49677294 0.71728861 0.012078042
0.20897144 0.070314303 -0.69000012 0.41019878 -0.53484356 0.73870105 0.0067395675
0.21634421 0.07355573 -0.69100016 0.47615126 -0.51501024 0.71277231 0.0049487106
0.22387259 0.075616598 -0.6945715 0.58403552 -0.45428383 0.67270261 0.0081911543
0.23 0.076666683 -0.69999999 0.61365342 -0.44116449 0.65483081 0.0089636873
0.13738169 0.08553417 -0.69688243 -0.7291801 -0.38068211 0.56866294 0.0063510146
0.14297439 0.083644867 -0.69305426 -0.6621061 -0.42568246 0.61677378 0.0083997101
0.22641459 0.084293813 -0.69340008 0.59086263 -0.45434043 0.66667539 0.0090537891
0.23237345 0.086271904 -0.69612503 0.6442377 -0.42973572 0.63268083 0.0098553263
0.13571802 0.095087171 -0.69356537 -0.75888455 -0.36287645 0.54075414 0.0076791234
0.14061303 0.090597779 -0.69099998 -0.68806911 -0.39777392 0.60690773 0.013849301
0.22748256 0.091035567 -0.6910001 0.61354554 -0.44892609 0.64963621 0.011739101
0.23434325 0.092722811 -0.69705552 0.68269825 -0.3884508 0.61889338 0.013910476
0.12895899 0.10753286 -0.69869989 -0.88487607 -0.25266942 0.39134699 0.0068107396
0.13239935 0.10428851 -0.69391906 -0.82964569 -0.30624345 0.46680072 0.0071815839
0.2313143 0.1031714 -0.69000012 0.68993068 -0.35418293 0.63130826 0.015603741
0.12862578 0.11509651 -0.69749999 -0.89233845 -0.26730025 0.36370674 0.0069234329
0.13075133 0.11199979 -0.69222224 -0.85301882 -0.28419137 0.43771473 0.011860548
0.12698117 0.12458038 -0.69313645 -0.89460438 -0.23222956 0.38177532 0.012869372
0.12565757 0.13432443 -0.69377786 -0.90282881 -0.21654038 0.37149739 0.012262385
0.12358952 0.15412556 -0.69100004 -0.93847674 -0.095649585 0.33183205 0.003025631
0.1799286 0.05954 -0.68699998 -0.081905343 -0.56808054 0.81888705 0.013780522
0.1812371 0.05954 -0.68699998 -0.038841315 -0.57579005 0.81667441 0.014327557
0.16600513 0.06807635 -0.68805563 -0.30924982 -0.56200242 0.76714915 0.011023208
0.17547853 0.065792061 -0.68594736 -0.16331889 -0.57504028 0.80165809 0.011674681
0.18481402 0.06556166 -0.68553597 0.027579166 -0.56577551 0.82409799 0.0099582598
0.1942078 0.066855066 -0.68625015 0.18791892 -0.56651407 0.80233926 0.011096502
0.20210177 0.068202063 -0.68749994 0.28201085 -0.53558618 0.79600084 0.010454649
0.1498314 0.07916858 -0.68699998 -0.52898759 -0.48202434 0.69844449 0.014946756
0.15640178 0.077091418 -0.68658066 -0.4371455 -0.51062906 0.74037951 0.017593274
0.16443069 0.073612668 -0.6847409 -0.33882755 -0.54716939 0.76537663 0.014255203
0.17425707 0.072373591 -0.68273085 -0.14746083 -0.57013029 0.80821204 0.015947012
0.18507247 0.07125707 -0.68225002 0.028430926 -0.57143319 0.82015604 0.012312794
0.19584768 0.072424382 -0.6826399 0.19220801 -0.55321836 0.81055874 0.0097161476
0.20533834 0.075115122 -0.68436176 0.35035405 -0.52896351 0.77294868 0.010595636
0.21294479 0.076610044 -0.68755007 0.44371441 -0.51377475 0.73427027 0.0055423086
0.14675534 0.086158842 -0.68647385 -0.62057662 -0.44479877 0.64578551 0.014034134
0.15321624 0.083631158 -0.68352628 -0.45593488 -0.48403767 0.74688083 0.025904821
0.20881812 0.081733517 -0.68220001 0.37168136 -0.53114665 0.76140416 0.011834491
0.21568729 0.08375863 -0.68451285 0.48205888 -0.49802998 0.72082275 0.0065789009
0.22156684 0.087445989 -0.68742859 0.55886686 -0.47195393 0.6818558 0.011597114
0.1388288 0.097309716 -0.68760008 -0.69965345 -0.39017913 0.59853607 0.015477149
0.14350194 0.094409883 -0.68387508 -0.65833426 -0.41908774 0.62526911 0.015974492
0.15004 0.090933338 -0.68199998 -0.54369313 -0.43336767 0.71874219 0.032159708
0.21845651 0.090716831 -0.68200004 0.48638555 -0.47526088 0.73318219 0.0073917992
0.22521102 0.095421739 -0.68400002 0.58913851 -0.4415291 0.67673326 0.013787745
0.23125711 0.098365717 -0.68400002 0.64160615 -0.40926799 0.64872283 0.013805728
0.13691857 0.10529058 -0.68565851 -0.73770028 -0.33241606 0.58762056 0.02325269
0.14190412 0.10175238 -0.68244445 -0.68253988 -0.3793053 0.62471324 0.02400442
0.2267644 0.10120248 -0.68379998 0.60648495 -0.42006123 0.6750738 0.016078316
0.2309629 0.1014143 -0.68699998 0.68987024 -0.35422319 0.63135165 0.015573146
0.12901938 0.11853938 -0.68766665 -0.85768908 -0.27365097 0.43529832 0.011385906
0.13315406 0.11470505 -0.68480492 -0.80205756 -0.3159506 0.50683218 0.010713575
0.12899584 0.12580977 -0.68625003 -0.85976785 -0.25186315 0.44425705 0.010654308
0.13080841 0.12397223 -0.68333334 -0.83645546 -0.28962812 0.46525022 0.011096504
0.12765363 0.13532187 -0.68504167 -0.87519825 -0.22951993 0.42585027 0.011362664
0.1305543 0.1305543 -0.68199998 -0.86293781 -0.24927957 0.4395431 0.0098012174
0.12566911 0.1449382 -0.6845001 -0.89314491 -0.1859134 0.40954655 0.011972358
0.12488842 0.15388802 -0.68338889 -0.92475301 -0.10449841 0.36593994 0.0034327728
0.12479955 0.16055 -0.6825 -0.92660987 -0.078385755 0.36776346 0.0037869487
0.1593143 0.079657137 -0.68000001 -0.39598951 -0.50715631 0.76549637 0.024350461
0.16588716 0.078498788 -0.67942113 -0.29903862 -0.50699651 0.80841231 0.023290476
0.17534979 0.07688991 -0.67819518 -0.15482949 -0.53626782 0.82972562 0.023490921
0.18492335 0.075847462 -0.67789799 0.014676194 -0.54196078 0.8402757 0.019520421
0.19433273 0.076965965 -0.67845464 0.18401292 -0.54754722 0.81629121 0.0099815121
0.20135029 0.078597523 -0.67980003 0.2721369 -0.52936786 0.80356151 0.010530867
0.15690617 0.086357899 -0.67875689 -0.42697436 -0.49336761 0.75781351 0.028584003
0.164811 0.084953167 -0.67461759 -0.32710737 -0.52592689 0.78511244 0.025994854
0.17457798 0.083818614 -0.67322642 -0.17434673 -0.54009801 0.82334524 0.023624467
0.18470562 0.083139345 -0.67304432 -0.0071467678 -0.53274089 0.84624827 0.025787786
0.19511575 0.084502719 -0.6736787 0.22176348 -0.53880852 0.81271541 0.0095259873
0.20477386 0.085477591 -0.67695928 0.3485125 -0.50680971 0.78846872 0.012260926
0.21231084 0.087529458 -0.67935717 0.44064459 -0.4842374 0.75587463 0.0080048563
0.14775756 0.096582964 -0.67819244 -0.59857363 -0.42052332 0.68181354 0.035735998
0.15420887 0.094390243 -0.67488354 -0.46277031 -0.48356119 0.74297523 0.038727149
0.16292585 0.090886891 -0.67169237 -0.34488055 -0.51024204 0.78785181 0.037270673
0.19682665 0.090105712 -0.671 0.24231686 -0.51202613 0.82408243 0.010982864
0.20547283 0.092793144 -0.67196757 0.34827781 -0.49770465 0.79435056 0.012368744
0.21478938 0.095066808 -0.67610878 0.47641689 -0.46162075 0.74828702 0.0078692799
0.22122626 0.097991623 -0.6796 0.50533265 -0.46143535 0.7291888 0.0089816879
0.1385393 0.10875977 -0.67975003 -0.70198762 -0.38353783 0.60009348 0.025556747
0.14492273 0.10501748 -0.67587316 -0.62767529 -0.40223318 0.66650754 0.035416834
0.15236032 0.10226012 -0.6715554 -0.51735038 -0.45215335 0.72657138 0.032957315
0.2161189 0.10145084 -0.67227286 0.46233505 -0.45468774 0.76125246 0.0092955269
0.22344725 0.10219294 -0.67841661 0.55130261 -0.44439101 0.70610338 0.010388844
0.1373377 0.11588807 -0.67791682 -0.73451054 -0.36160514 0.5742265 0.022959188
0.1422621 0.11423766 -0.67314273 -0.6696164 -0.41169134 0.61816186 0.025224911
0.2148478 0.11285578 -0.671 0.46587342 -0.40171164 0.78840953 0.012957019
0.13477872 0.12464929 -0.6749509 -0.73486489 -0.36689091 0.57040745 0.024328992
0.12938166 0.1368392 -0.67685717 -0.85655171 -0.22944282 0.46225002 0.010297291
0.13217759 0.13399616 -0.67364514 -0.82509762 -0.23355545 0.51445669 0.012712914
0.12903675 0.14483102 -0.67565387 -0.86307836 -0.18736686 0.46903029 0.012044324
0.13100481 0.14442477 -0.671 -0.83321494 -0.18944222 0.51948488 0.01158079
0.12798664 0.15496263 -0.67583328 -0.86275429 -0.12554634 0.48978898 0.0079034762
0.12811525 0.16364141 -0.67500007 -0.85564429 -0.065235108 0.51343668 0.0079060951
0.1310048 0.16487426 -0.671 -0.84530342 -0.072944634 0.52928358 0.0076883473
0.12972669 0.17318189 -0.671 -0.85979384 -0.075030297 0.505099 0.013595292
0.1310048 0.17445999 -0.671 -0.85033846 -0.11094765 0.51440763 0.015181106
0.16845715 0.089971431 -0.67000002 -0.25454238 -0.50899738 0.82227123 0.03648524
0.17567544 0.088861398 -0.66973692 -0.13640225 -0.53882223 0.83130324 0.027226057
0.18506543 0.088539667 -0.66959995 0.0064105662 -0.53909093 0.84222323 0.027093891
0.19164132 0.089120641 -0.67000002 0.09543442 -0.5213449 0.84799284 0.028998051
0.15837403 0.097299188 -0.66900009 -0.39691648 -0.48729521 0.7778179 0.036892489
0.16514969 0.095753804 -0.66688734 -0.29635036 -0.51189846 0.8063103 0.037431307
0.17512406 0.094933011 -0.66511756 -0.14310579 -0.51671648 0.84411192 0.041036196
0.18509236 0.09495192 -0.66501725 0.013144336 -0.52697295 0.84978038 0.030671265
0.19506796 0.095398255 -0.66768986 0.18653244 -0.50264931 0.84412634 0.025317568
0.20398538 0.097026922 -0.66932148 0.31028658 -0.50067747 0.80811149 0.012767118
0.21120951 0.098904774 -0.67000002 0.41914371 -0.46080324 0.78229082 0.0093318485
0.14848466 0.10808571 -0.66977781 -0.56845433 -0.45492941 0.68549168 0.032720443
0.15574139 0.10566101 -0.66603166 -0.48402834 -0.46649781 0.74033529 0.031773806
0.16432194 0.10331338 -0.66259569 -0.32820582 -0.50932407 0.79553115 0.035001568
0.17518602 0.10122404 -0.6613335 -0.15829444 -0.5260756 0.835576 0.038612776
0.18529069 0.10167155 -0.66165221 0.022143953 -0.53862965 0.8422516 0.02853474
0.19541876 0.10364313 -0.66242218 0.17981194 -0.49912718 0.84766728 0.027164595
0.20534527 0.10483103 -0.6664834 0.36154002 -0.44027525 0.8218556 0.0066288463
0.2149525 0.10575129 -0.66900009 0.45938522 -0.45278049 0.76416951 0.010676532
0.22093099 0.10579127 -0.66916674 0.47877887 -0.44659612 0.7558589 0.011845022
0.14687316 0.1157373 -0.66714597 -0.59887397 -0.44690937 0.66454655 0.034798484
0.1533723 0.11353749 -0.66274422 -0.49816865 -0.47941616 0.72248745 0.032319915
0.20596763 0.11173054 -0.66242117 0.33716887 -0.403469 0.85060561 0.0047536939
0.21621212 0.11211581 -0.66947371 0.46590301 -0.40166429 0.78841621 0.012970331
0.22084251 0.11188898 -0.66980004 0.49433148 -0.39240426 0.77566439 0.015067342
0.13877544 0.12674434 -0.66918755 -0.71924466 -0.35897261 0.59483242 0.022873333
0.14435592 0.12467651 -0.6639564 -0.65433627 -0.37771156 0.65511674 0.021227079
0.15045621 0.120239 -0.66100001 -0.55317962 -0.42266124 0.7178787 0.020000085
0.13690196 0.13538799 -0.6666863 -0.759013 -0.27545306 0.58993638 0.0098697748
0.14203547 0.13338757 -0.6615001 -0.69631231 -0.31766433 0.6436137 0.012369179
0.13490789 0.14473535 -0.66629821 -0.80357164 -0.20140111 0.56009853 0.011146929
0.14038379 0.14038379 -0.66100001 -0.73651499 -0.26004985 0.62443554 0.011281267
0.13328318 0.15508212 -0.66587776 -0.83768803 -0.10914504 0.53513193 0.0063933032
0.12953332 0.16781907 -0.67000002 -0.86012655 -0.071877107 0.50499111 0.011944751
0.13336399 0.16499339 -0.66539031 -0.84412092 -0.099553578 0.52682912 0.0099249333
0.12953331 0.1703714 -0.67000002 -0.86011302 -0.071879983 0.50501364 0.011924895
0.13332197 0.17318755 -0.66506261 -0.82337677 -0.071593657 0.56296086 0.016606526
0.13786571 0.1819324 -0.66100001 -0.79889476 -0.11909857 0.58956152 0.023908464
0.16653107 0.10773472 -0.65946156 -0.26233634 -0.50788283 0.82050872 0.034173317
0.17497163 0.10640596 -0.65877366 -0.14112756 -0.5039584 0.85212028 0.036344588
0.18481535 0.10665404 -0.65851122 0.042725053 -0.49088776 0.87017465 0.017982755
0.19297145 0.10748575 -0.66000003 0.17858745 -0.47153336 0.8635757 0.022068642
0.1567446 0.11667334 -0.65847367 -0.44428283 -0.46455711 0.76602834 0.034528378
0.16495487 0.11473646 -0.65549338 -0.2722691 -0.47431239 0.83719605 0.041074529
0.17505649 0.11516923 -0.65360546 -0.12241101 -0.49291989 0.86142063 0.039446276
0.1847778 0.11475048 -0.65474194 0.029523339 -0.49277282 0.86965704 0.023733184
0.19489071 0.11470801 -0.6572122 0.23247813 -0.42756885 0.87357807 0.0065929051
0.20268312 0.11544757 -0.65948141 0.28647047 -0.40260279 0.86939377 0.0043937294
0.14921102 0.12714882 -0.65875006 -0.55121386 -0.38720548 0.73907727 0.024949333
0.1550117 0.12500809 -0.65468746 -0.46178567 -0.44099528 0.76959538 0.030915922
0.16307743 0.12279223 -0.65206671 -0.30629393 -0.44103104 0.84360874 0.035987653
0.17530498 0.12105499 -0.65100002 -0.10695998 -0.44510734 0.88906628 0.029481065
0.18596719 0.12235887 -0.65196884 0.1029699 -0.39261174 0.91392183 0.0060311584
0.19397198 0.12318501 -0.65451431 0.26067874 -0.38091129 0.88710386 0.0087750368
0.14614186 0.13571458 -0.65615636 -0.64108491 -0.3159118 0.69943541 0.012451477
0.15320644 0.13218135 -0.65262508 -0.50871825 -0.34730351 0.78777283 0.016586006
0.13849154 0.14645 -0.65799999 -0.76107925 -0.2060179 0.61507332 0.010828553
0.14449495 0.14482608 -0.65388411 -0.66710681 -0.2523126 0.70093286 0.017106622
0.13759154 0.15499713 -0.65696979 -0.77943838 -0.12655082 0.61356395 0.010828979
0.1426729 0.15494643 -0.65315926 -0.69575149 -0.12324177 0.70763087 0.021106115
0.13773873 0.16498676 -0.65665621 -0.79322672 -0.11107211 0.59871072 0.013610116
0.14182851 0.16477032 -0.65270972 -0.72229135 -0.11798272 0.68145084 0.028651219
0.13778172 0.17510939 -0.65708828 -0.762191 -0.10421003 0.63890934 0.032279108
0.14169002 0.17467006 -0.65253335 -0.72109133 -0.099552624 0.68565047 0.037811153
0.13866208 0.18147764 -0.6578334 -0.76028049 -0.11876596 0.63864571 0.037664492
0.14045569 0.18166715 -0.65550005 -0.760423 -0.11888926 0.63845301 0.037851255
0.1590952 0.129381 -0.64999998 -0.36264309 -0.35585302 0.86131215 0.023868622
0.16612048 0.12604386 -0.64939988 -0.22275247 -0.41064659 0.88416672 0.028825298
0.17463033 0.12561673 -0.6485517 -0.085274503 -0.36728343 0.92619169 0.010579057
0.18387617 0.12669234 -0.64929408 0.05935692 -0.35018352 0.93479848 0.0069019743
0.19066665 0.12876195 -0.64999998 0.1241404 -0.34983593 0.92854935 0.0053006033
0.15563257 0.13636458 -0.64843631 -0.39971149 -0.31461403 0.8609581 0.025668727
0.16490033 0.13478047 -0.64694655 -0.2425883 -0.30049539 0.92241716 0.019549388
0.17502071 0.13505463 -0.64581949 -0.079090185 -0.28433892 0.95545602 0.011042875
0.18478841 0.13467473 -0.64698452 0.065365143 -0.29466388 0.95336276 0.006727349
0.19067681 0.13089648 -0.64933336 0.15144134 -0.30184671 0.9412514 0.0063530826
0.14937995 0.14613853 -0.64881241 -0.51318532 -0.20801611 0.83268851 0.017474331
0.15487649 0.1449254 -0.64591038 -0.37972024 -0.2140668 0.8999933 0.021158339
0.16480646 0.14530198 -0.64355159 -0.21434879 -0.17271243 0.9613663 0.016478853
0.17519616 0.14484134 -0.64419162 -0.048817463 -0.17698576 0.98300201 0.0068959477
0.18416576 0.14459442 -0.64607513 0.03703694 -0.19693889 0.979716 0.0058873957
0.14771847 0.15521963 -0.64817494 -0.5286817 -0.17566969 0.83044314 0.034917153
0.15499394 0.154994 -0.64398623 -0.35092694 -0.20923343 0.91272759 0.028144183
0.16479066 0.15517667 -0.64267647 -0.21027291 -0.20436938 0.95604324 0.022071632
0.17549327 0.15466423 -0.64385539 -0.055890664 -0.15440825 0.98642498 0.0083633456
0.18213877 0.15323709 -0.64416677 0.033099875 -0.11834478 0.99242073 0.0051199729
0.14667781 0.16510437 -0.64740819 -0.62258619 -0.12051231 0.77321619 0.04738304
0.15449628 0.16474499 -0.64386207 -0.39364046 -0.14765304 0.90732884 0.044134676
0.1649103 0.16479349 -0.64370537 -0.2405093 -0.23919006 0.94071436 0.03739801
0.17318833 0.16406864 -0.64397472 -0.089267328 -0.17350437 0.98077905 0.02168045
0.13872051 0.1798462 -0.64450002 -0.73153186 -0.070940822 0.67810649 0.041084979
0.14657089 0.17579804 -0.64731044 -0.603782 -0.12680523 0.78699923 0.060119625
0.1545431 0.17439412 -0.64414787 -0.46873704 -0.13724002 0.87261146 0.060339395
0.16462599 0.17347188 -0.64518017 -0.3701722 -0.23438834 0.89890748 0.054917373
0.17088738 0.1723886 -0.64466667 -0.10904232 -0.19406185 0.97491014 0.030107489
0.14659366 0.12695986 -0.67384869 -0.70947063 -0.3707366 0.59933782 0.023465443
0.14674693 0.15379235 -0.65815121 -0.67766666 -0.11697961 0.72600532 0.015804885
0.15078761 0.1800905 -0.64099997 -0.4488607 -0.13649249 0.88311601 0.071636133
0.18155855 0.022622751 -0.72755063 -0.097476184 -0.61960477 0.77883786 0.03958213
0.17238109 0.0091955662 -0.74291593 -0.24127415 -0.47976309 0.84357226 0.036261566
0.15838471 0.0082775084 -0.74441522 -0.42883515 -0.46533439 0.77431536 0.032342978
0.12750819 0.0058906856 -0.77535808 -0.8883633 -0.29138348 0.35483289 0.012626224
0.1496114 0.1798972 -0.63599998 -0.45209897 -0.14893936 0.87944496 0.075629897
0.15541279 0.17831486 -0.63617247 -0.39770272 -0.17375056 0.9009124 0.075144663
0.16516611 0.17765331 -0.6364361 -0.20247002 -0.2646811 0.94284135 0.050962772
0.17367114 0.17802548 -0.63915396 -0.10335506 -0.26858711 0.95769453 0.039667014
0.16613989 0.098296426 -0.68066376 -0.37655747 -0.48711008 0.78799009 0.040199183
0.18076955 0.086527519 -0.6821928 -0.05762979 -0.51998013 0.85223204 0.026419546
0.17166124 0.10610338 -0.6787169 -0.24282175 -0.50535828 0.82804024 0.045056421
0.16312632 0.11673778 -0.67726403 -0.48625612 -0.48468661 0.72707212 0.048016034
0.14097123 0.097826347 -0.69391692 -0.71721452 -0.38310537 0.58209401 0.016058285
0.17044657 0.020711979 -0.74301708 -0.27066883 -0.53498864 0.80032843 0.054681912
0.14593838 0.050536599 -0.73403835 -0.73374009 -0.41558492 0.53750777 0.017811639
0.1688402 0.016091149 -0.73806047 -0.25656766 -0.5361101 0.80421335 0.037570283
0.1799752 0.014728024 -0.7284323 -0.12576114 -0.56334209 0.81659657 0.039325163
0.19239599 0.022162659 -0.72680891 0.060179781 -0.61750478 0.78426158 0.040890407
