# .PCD v0.7 - Point Cloud Data file format
VERSION 0.7
FIELDS x y z normal_x normal_y normal_z curvature
SIZE 4 4 4 4 4 4 4
TYPE F F F F F F F
COUNT 1 1 1 1 1 1 1
WIDTH 357
HEIGHT 1
VIEWPOINT 0 0 0 1 0 0 0
POINTS 357
DATA ascii
-0.18283318 -0.050997309 -0.70149994 0.57657301 -0.36941621 0.72876281 0.0095062628
-0.18084714 -0.047389369 -0.70416665 0.59026486 -0.32902646 0.73710847 0.016630247
-0.17565331 -0.044637475 -0.70547837 0.61824542 -0.30598819 0.72397768 0.015170521
-0.16888466 -0.042835556 -0.70400006 0.65258449 -0.30560473 0.69335359 0.012326066
-0.17323253 -0.035998821 -0.70402628 0.65104043 -0.29922557 0.69757468 0.014766694
-0.16860776 -0.034704816 -0.70563155 0.63884985 -0.29656518 0.70987332 0.015822848
-0.17152222 -0.02521137 -0.70205891 0.67041928 -0.24347691 0.70089722 0.01637771
-0.16837542 -0.025750412 -0.70286673 0.65619093 -0.27558437 0.70247191 0.01388436
-0.17024291 -0.01936095 -0.70099998 0.69774866 -0.20093259 0.68758494 0.014367451
-0.16757236 -0.01749162 -0.70099998 0.68221641 -0.20403475 0.70210445 0.014991745
-0.20152669 0.014060001 -0.70300001 0.50249547 0.71029925 0.49292326 0.24611633
-0.20293184 -0.056900393 -0.69070017 0.4322705 -0.40419251 0.80608356 0.020228043
-0.19531482 -0.05362618 -0.69297504 0.4774259 -0.38199377 0.79129344 0.023475338
-0.18825893 -0.052582737 -0.69653338 0.51823866 -0.41431803 0.74817729 0.015264237
-0.19219425 -0.045659505 -0.69080019 0.50575364 -0.40224999 0.76315677 0.020644685
-0.18530701 -0.044889875 -0.69500005 0.55438197 -0.38230687 0.73925781 0.017901832
-0.17914908 -0.042854127 -0.69583344 0.59022063 -0.34042269 0.73195076 0.0185655
-0.19070905 -0.038799524 -0.69050002 0.51596624 -0.39573815 0.75971723 0.027635677
-0.18387617 -0.03562827 -0.69213647 0.57412934 -0.3566713 0.73699462 0.02185907
-0.17725644 -0.034235802 -0.69628131 0.62334621 -0.32229656 0.71243554 0.017877223
-0.18179473 -0.028120425 -0.69022226 0.60443586 -0.27094978 0.7491619 0.026139833
-0.17568344 -0.025169663 -0.69342875 0.67656213 -0.23786134 0.69691157 0.017702803
-0.1731955 -0.015096948 -0.69329566 0.65450007 -0.13127019 0.7445789 0.027664298
-0.16795291 -0.014428027 -0.69914281 0.67549622 -0.14576511 0.72281206 0.024112836
-0.1811524 -0.0010952383 -0.69000018 0.45850825 0.056689151 0.88688022 0.109315
-0.17457913 -0.0049915821 -0.69212526 0.46321565 -0.07484591 0.88307953 0.07702487
-0.16770676 -0.0049640681 -0.69572985 0.48244154 -0.12884665 0.86639977 0.055010669
-0.2002686 0.0099142864 -0.69400001 0.43116799 0.26004463 0.8639856 0.19626826
-0.19367814 0.0074628918 -0.6933704 0.2789886 0.1099024 0.95398468 0.13668837
-0.18451434 0.0054743211 -0.69153875 0.18475454 -0.037320957 0.98207581 0.12720734
-0.1750263 0.005223501 -0.69148439 0.22126529 -0.17124394 0.96006107 0.084370248
-0.16719379 0.0046054679 -0.69141948 0.32104385 -0.21677841 0.92192078 0.058240395
-0.2012191 0.01257619 -0.69500011 0.39067852 0.29533949 0.87186289 0.20201862
-0.19655409 0.011691851 -0.69488901 0.19654112 0.13494281 0.97116524 0.15928905
-0.18361057 0.013311262 -0.69143486 -0.0084263049 -0.1974759 0.98027152 0.10422793
-0.17379841 0.012643386 -0.69066674 0.087659754 -0.24528238 0.96548027 0.079141691
-0.16835049 0.013152383 -0.69050002 0.067830585 -0.34151143 0.93742681 0.043772604
-0.2609514 -0.061324768 -0.685 -0.065349154 -0.56374669 0.82335854 0.0061071347
-0.2559593 -0.062120058 -0.68405885 -0.052217353 -0.5533182 0.83133167 0.006323358
-0.24148367 -0.062863968 -0.68283337 0.042398758 -0.54510796 0.83729315 0.0070992392
-0.23496102 -0.061800726 -0.68304765 0.085172631 -0.53150165 0.84276426 0.0089903157
-0.22498374 -0.061552387 -0.68410528 0.23699492 -0.4992612 0.83340973 0.0040258882
-0.21624376 -0.061670531 -0.68483335 0.30002865 -0.50443012 0.80964994 0.0044028675
-0.26097867 -0.057547808 -0.68199998 -0.06795685 -0.553505 0.83006883 0.0047347257
-0.25675306 -0.05811964 -0.68330777 -0.045364458 -0.54557103 0.83683592 0.0051896577
-0.23188002 -0.058781907 -0.68199998 0.10605774 -0.54771125 0.82991821 0.0090435874
-0.22432086 -0.05708668 -0.68259358 0.24340647 -0.50736731 0.82663876 0.00361435
-0.21435316 -0.055290718 -0.68425798 0.33853063 -0.40706873 0.84834653 0.027941814
-0.20597702 -0.053699553 -0.68737775 0.39521489 -0.3510282 0.84887242 0.02798311
-0.1988257 -0.050526671 -0.68900001 0.43903542 -0.4136194 0.79760063 0.027260648
-0.21182166 -0.04873215 -0.68224996 0.35609972 -0.45082581 0.81850415 0.023225216
-0.20452283 -0.04581454 -0.68348891 0.41297296 -0.44393823 0.79521835 0.023010695
-0.19694979 -0.044338338 -0.68659997 0.47953656 -0.40774375 0.77703905 0.029867427
-0.20070291 -0.039620951 -0.68199998 0.43843836 -0.44321635 0.78187662 0.023118218
-0.19348337 -0.036795098 -0.68325704 0.49538147 -0.41824225 0.761361 0.025047025
-0.18776196 -0.032778811 -0.68695009 0.55634391 -0.34856892 0.75430834 0.027314285
-0.19031049 -0.028579049 -0.68199998 0.54752171 -0.34716424 0.76137835 0.032591682
-0.18470977 -0.025048362 -0.68485999 0.61496031 -0.27574956 0.73877335 0.026936375
-0.17914049 -0.02140905 -0.68816674 0.64540839 -0.18232267 0.74175912 0.027232142
-0.18141206 -0.01497492 -0.68355554 0.66232812 -0.069327854 0.74599934 0.044772603
-0.17820363 -0.015208902 -0.6873461 0.67243516 -0.054793503 0.73812509 0.03543992
-0.19280258 -0.0018503298 -0.68269235 0.62619406 0.1935024 0.7552734 0.089519866
-0.18434477 -0.0044593597 -0.68463463 0.61105841 0.073484652 0.78816724 0.076610386
-0.17879826 -0.0076054223 -0.6876924 0.60125953 -0.022391092 0.79874003 0.068230353
-0.19393124 0.003634694 -0.68464291 0.56587851 0.20778061 0.79787761 0.10843167
-0.18765113 0.0010911111 -0.68733335 0.45410404 0.07104665 0.88811135 0.11654866
-0.20457035 0.01646015 -0.68492311 0.65132892 -0.30922791 0.69292772 0.17938061
-0.19844964 0.015442738 -0.682625 0.65061355 -0.31089577 0.69285339 0.16367698
-0.18339714 0.01773924 -0.68660009 0.035130803 -0.34563023 0.93771297 0.097737327
-0.17501108 0.016455295 -0.68662858 0.13053344 -0.32143536 0.93789142 0.077079698
-0.16793428 0.017639684 -0.68611115 0.16196869 -0.37947282 0.91091532 0.034319125
-0.2047314 0.020341899 -0.68900001 0.72314596 -0.37733343 0.57851493 0.15841617
-0.18464109 0.023711655 -0.68365788 0.20814732 -0.55028147 0.8086192 0.0767451
-0.17538865 0.021508979 -0.6824286 0.1799314 -0.44061655 0.8794781 0.051281817
-0.16827376 0.021169206 -0.68277782 0.18944846 -0.43638712 0.87958831 0.022657484
-0.25106034 -0.060660318 -0.68000001 -0.0028459723 -0.55026728 0.83498371 0.0055878903
-0.24559167 -0.061908647 -0.67984629 0.026209239 -0.53943187 0.84162134 0.0060437904
-0.2363809 -0.060228571 -0.68000001 0.076811418 -0.53840137 0.83918053 0.0078929858
-0.26442558 -0.05238409 -0.67762506 -0.098074682 -0.54629618 0.83183044 0.0038002292
-0.25444373 -0.053840503 -0.67741668 -0.029960476 -0.54488748 0.83797371 0.004045995
-0.24484171 -0.054811843 -0.6772908 0.030967932 -0.54349589 0.83884031 0.0062434636
-0.23531523 -0.054599337 -0.67862284 0.079613432 -0.53398967 0.84173441 0.0073309727
-0.22594032 -0.052826669 -0.67918521 0.26489559 -0.42759141 0.86428928 0.025114914
-0.217924 -0.051405903 -0.67980003 0.30699569 -0.43139023 0.84832549 0.023869716
-0.26359627 -0.046626352 -0.67451513 -0.080931857 -0.53633338 0.84011704 0.0039010304
-0.25530359 -0.045969937 -0.67257154 -0.064165391 -0.54100841 0.83856589 0.0035050628
-0.24516711 -0.047297582 -0.67245454 0.028084513 -0.55205238 0.83333635 0.004603026
-0.23475467 -0.04537997 -0.6729334 0.1458299 -0.51978767 0.84175688 0.017127512
-0.22505383 -0.045062788 -0.67542046 0.29777265 -0.48738623 0.82084477 0.023168033
-0.21510796 -0.044662379 -0.67726672 0.35265636 -0.47645715 0.80537081 0.022637425
-0.20724891 -0.041795686 -0.67933327 0.39420012 -0.45679665 0.79746032 0.02267679
-0.22416137 -0.038073786 -0.67157888 0.31356299 -0.49960282 0.80751175 0.021573853
-0.21429828 -0.036152318 -0.67264283 0.36249462 -0.49333414 0.79070801 0.019329559
-0.20503189 -0.03490901 -0.6749559 0.44012108 -0.47072023 0.76466715 0.02440878
-0.19637108 -0.032946885 -0.67827517 0.4791455 -0.40238735 0.78006667 0.026714738
-0.20304088 -0.02682095 -0.67183328 0.49185047 -0.44060403 0.75096691 0.029933067
-0.19476368 -0.025073592 -0.67552388 0.56930602 -0.36402202 0.73714215 0.035188623
-0.18770668 -0.022100167 -0.67894119 0.59946924 -0.24562658 0.76177704 0.047854811
-0.1926436 -0.016405435 -0.67332256 0.62655932 -0.22790782 0.74530637 0.053861324
-0.18628164 -0.014849247 -0.67790395 0.65815544 -0.12784976 0.74194723 0.053657364
-0.19295336 -0.005006758 -0.67823809 0.69136941 0.1804921 0.69959337 0.063800521
-0.18739232 -0.0082651339 -0.67927784 0.66968095 0.11443156 0.73377985 0.061252937
-0.20103955 0.0074475328 -0.67718184 0.72119653 0.2703383 0.63780308 0.10162523
-0.19799869 0.0047053527 -0.67903459 0.68855798 0.27411008 0.6713804 0.093533315
-0.20207302 0.012185713 -0.67933333 0.77005154 0.16270728 0.61688501 0.14083916
-0.19683966 0.015216311 -0.67987496 0.56695986 -0.40447047 0.71760726 0.15473412
-0.18239999 0.028484523 -0.67974991 0.17558326 -0.58418483 0.79240048 0.039898954
-0.17450877 0.026398646 -0.6793173 0.22914058 -0.52532816 0.81946623 0.018281676
-0.16878 0.025866667 -0.67900002 0.092097655 -0.55250925 0.828403 0.02054422
-0.18333167 0.032915451 -0.67438704 0.21863759 -0.59436041 0.7739079 0.022282716
-0.17521067 0.034971897 -0.67623472 0.22578953 -0.56678188 0.79232413 0.014332437
-0.16975135 0.034206804 -0.67771429 0.18234874 -0.60292578 0.77667838 0.014497813
-0.17321131 0.041364163 -0.67862499 0.21915027 -0.56541872 0.79515719 0.018198643
-0.26225716 -0.040838096 -0.67000002 -0.12174772 -0.51480508 0.84861845 0.0063342042
-0.25410092 -0.040816534 -0.66964298 -0.059988689 -0.51916939 0.85256338 0.0068551647
-0.24475394 -0.042123444 -0.66906905 0.027838444 -0.53403431 0.84500432 0.0048746346
-0.23748629 -0.040830594 -0.66987503 0.13479762 -0.51871914 0.84425122 0.017461777
-0.2708829 -0.031571429 -0.66299999 -0.17711622 -0.52473348 0.83263713 0.0076764431
-0.26465362 -0.034105435 -0.66682631 -0.14240535 -0.52773589 0.83738601 0.0063670017
-0.25497413 -0.034878466 -0.66573489 -0.081926204 -0.5275116 0.84558845 0.0067387247
-0.24468362 -0.034954675 -0.66393232 0.011908662 -0.54103285 0.84091723 0.0071184868
-0.23460855 -0.034979999 -0.66565567 0.16952436 -0.53987014 0.82450092 0.016024815
-0.22539078 -0.033567015 -0.66807514 0.28419995 -0.53101707 0.79828024 0.022774952
-0.2168335 -0.032348238 -0.6690588 0.33199149 -0.51751006 0.78864759 0.019495614
-0.27073306 -0.024437621 -0.66366673 -0.18750557 -0.53106338 0.82632524 0.0071615926
-0.26560876 -0.026037632 -0.66359633 -0.18137197 -0.53119618 0.82760793 0.0053475704
-0.25594676 -0.028639115 -0.66192865 -0.083306424 -0.53812474 0.83873826 0.0057614418
-0.24451342 -0.029291509 -0.66141677 -0.0021527547 -0.55854762 0.82946968 0.0093358271
-0.23485667 -0.028963691 -0.66112512 0.127478 -0.55166757 0.82426459 0.0035792522
-0.22444838 -0.026594128 -0.66351938 0.30303261 -0.55926943 0.77161449 0.018235445
-0.2146351 -0.025238622 -0.6654492 0.37723371 -0.50594288 0.77570397 0.029299567
-0.20635895 -0.024095504 -0.66927516 0.50212228 -0.41826454 0.75692016 0.041338503
-0.1990857 -0.02105714 -0.67000002 0.56844813 -0.30600101 0.76369512 0.050913155
-0.27061051 -0.018293655 -0.66233343 -0.20559312 -0.52249098 0.82748693 0.006682111
-0.26836371 -0.018458454 -0.66262507 -0.20174246 -0.524602 0.82709897 0.0066222833
-0.21181826 -0.01762102 -0.66233337 0.45123732 -0.44041288 0.77615809 0.041271217
-0.20483726 -0.015367006 -0.66484278 0.59682214 -0.29022533 0.7480458 0.060045309
-0.19666116 -0.014356776 -0.66847742 0.63652992 -0.20326066 0.74398571 0.063578166
-0.20273861 -0.0080486778 -0.66133338 0.6541267 -0.11737332 0.74722272 0.054307178
-0.19609037 -0.0055472832 -0.66504604 0.72166544 0.073743649 0.68830287 0.036821831
-0.20356764 0.0059446134 -0.66411763 0.79183006 0.18116087 0.58325458 0.036962092
-0.19813572 0.0024117145 -0.66510004 0.80177832 0.20417012 0.56166381 0.039584707
-0.21230708 0.016698269 -0.66269702 0.8230142 -0.065243043 0.56426144 0.046907522
-0.20673603 0.014383769 -0.66636175 0.88051355 0.049168676 0.47146407 0.052255981
-0.21328063 0.023131542 -0.66196167 0.81982875 -0.19490439 0.53841728 0.045350417
-0.2086132 0.021458477 -0.66660011 0.78118092 -0.20040327 0.59126556 0.060924016
-0.19296892 0.038643051 -0.66520011 0.48493448 -0.54697007 0.68239444 0.011171003
-0.18523175 0.037662894 -0.66789287 0.39938721 -0.55878735 0.72680575 0.018060559
-0.1790372 0.038865719 -0.66900003 0.37131998 -0.53535354 0.75862908 0.021754859
-0.19339371 0.04217774 -0.6622501 0.51245457 -0.45323005 0.72936475 0.029611513
-0.18424869 0.043658227 -0.66408163 0.50316435 -0.470373 0.72496539 0.023799781
-0.1778052 0.0441413 -0.66547233 0.44341177 -0.52985448 0.72293866 0.023834735
-0.18638504 0.056518003 -0.66136372 0.65300322 -0.19125871 0.73280752 0.047507834
-0.17878476 0.050991431 -0.66100001 0.6757741 -0.21602151 0.70474398 0.048089955
-0.26103461 -0.021527303 -0.65833342 -0.1325285 -0.53672355 0.83328509 0.0054852637
-0.25445202 -0.023761887 -0.65765125 -0.094528958 -0.54027808 0.83616018 0.0061516715
-0.24492227 -0.024195775 -0.65696234 -0.013281807 -0.5555895 0.83135062 0.0082729869
-0.23506276 -0.023826694 -0.65789807 0.14457972 -0.54457933 0.82615387 0.003864842
-0.2269455 -0.022305263 -0.65930432 0.24214114 -0.5534541 0.79690421 0.013057511
-0.21874285 -0.02074286 -0.66000003 0.3670201 -0.48666576 0.79275006 0.032717183
-0.2701095 -0.01372381 -0.65499997 -0.22741473 -0.52341187 0.8211714 0.0062951404
-0.26404491 -0.014826131 -0.65471804 -0.17557877 -0.53826344 0.82428426 0.006448274
-0.25536796 -0.016100788 -0.65309763 -0.11407813 -0.54926747 0.82782328 0.0067440574
-0.24493937 -0.016895143 -0.65210021 -0.019686226 -0.58055526 0.81398284 0.0097461157
-0.23468974 -0.015755024 -0.65322816 0.13908885 -0.55467725 0.82035816 0.00575017
-0.22525452 -0.014861757 -0.65582621 0.33922338 -0.46915203 0.81536734 0.024697455
-0.21560024 -0.014659218 -0.65758359 0.42115021 -0.4201524 0.80380625 0.034113839
-0.20899624 -0.010983808 -0.65900004 0.54878777 -0.25147837 0.79723942 0.043646898
-0.22378044 -0.0080109956 -0.65154552 0.43910229 -0.36789262 0.81966108 0.035805829
-0.21377337 -0.0059619965 -0.65332711 0.52478909 -0.2767297 0.80499506 0.039038565
-0.20552075 -0.0044842786 -0.65790778 0.67725176 -0.074772194 0.731942 0.04973273
-0.21263842 0.005664737 -0.6528976 0.70229167 -0.088481218 0.70636928 0.044513196
-0.2076129 0.003672715 -0.65721619 0.76430321 0.034033868 0.64395821 0.037108347
-0.21471405 0.014085335 -0.65455002 0.72191149 -0.13576654 0.67853606 0.036279615
-0.21580309 0.025337603 -0.65278798 0.69942051 -0.30285585 0.64737099 0.032866105
-0.21440475 0.033986721 -0.65164721 0.67419869 -0.44351935 0.59054774 0.028302914
-0.20777905 0.038144998 -0.65125 0.65883189 -0.47411704 0.58408356 0.025899559
-0.21079999 0.040920001 -0.65100002 0.68140393 -0.45039323 0.57691813 0.028101971
-0.20752694 0.040867347 -0.65157145 0.66559666 -0.4539904 0.59234595 0.029568223
-0.19319181 0.046941757 -0.65445167 0.59728247 -0.30862433 0.74027342 0.055631787
-0.18678711 0.047421735 -0.65807402 0.60503155 -0.30087975 0.73716235 0.04495579
-0.19186878 0.053182743 -0.65291303 0.59120429 -0.28276625 0.7553283 0.06296698
-0.18588811 0.053972136 -0.65831256 0.63803059 -0.22994399 0.73487604 0.050581187
-0.17949811 0.052719049 -0.65900004 0.74488747 -0.096487634 0.6601764 0.042815741
-0.20064452 0.067089289 -0.65225005 0.71025276 -0.2497247 0.65816307 0.071320318
-0.19623215 0.065927178 -0.65284854 0.73029411 -0.15041636 0.66636735 0.068454042
-0.20269497 0.070814699 -0.65142864 0.85231817 0.13022289 0.50655282 0.029415539
-0.19879143 0.070418738 -0.65433335 0.78773427 0.071906909 0.61180407 0.052333362
-0.26447242 -0.010513017 -0.64933336 -0.19240603 -0.53460443 0.82290834 0.0055822288
-0.25417322 -0.011401224 -0.64957142 -0.093425468 -0.54115802 0.83571512 0.0087657021
-0.24530424 -0.011832161 -0.64853829 -0.019486262 -0.5588246 0.82905692 0.010246525
-0.23636432 -0.011169841 -0.64913338 0.13907309 -0.50334942 0.85281777 0.011874327
-0.27072474 -0.0030923812 -0.64900005 -0.25191104 -0.54156619 0.80202669 0.0040284786
-0.26505327 -0.0048921518 -0.64794463 -0.19104119 -0.54997849 0.81303561 0.0054760827
-0.25498536 -0.0049241353 -0.64553142 -0.11660296 -0.55726022 0.82210994 0.0086484868
-0.244746 -0.0052708117 -0.64407027 0.033205543 -0.51475781 0.85669237 0.014232988
-0.23517045 -0.0048374096 -0.6457333 0.21766636 -0.47643673 0.85183883 0.019093685
-0.22564754 -0.0036095236 -0.64827996 0.40862823 -0.37962452 0.83000493 0.036132816
-0.21694002 -0.0025306062 -0.64913625 0.53145725 -0.2684454 0.80342412 0.041609563
-0.27070445 0.0053298413 -0.64600003 -0.27848318 -0.53009403 0.80090421 0.0037757971
-0.26602915 0.003968948 -0.64455283 -0.23754762 -0.5318042 0.8128686 0.0041490775
-0.25704917 0.0013436193 -0.64139998 -0.10777597 -0.51256579 0.85185719 0.0089336215
-0.2411381 0.00061047619 -0.64099997 0.11202564 -0.49700671 0.86048502 0.018573044
-0.2341584 0.001726501 -0.64195651 0.27189109 -0.44481209 0.85335654 0.023691373
-0.22382584 0.004223235 -0.64377606 0.5408532 -0.28748095 0.79046345 0.040669046
-0.21708919 0.0047171661 -0.64753485 0.59349751 -0.18914078 0.7822957 0.040582512
-0.26881304 0.010785083 -0.64099997 -0.24890396 -0.48483619 0.83843946 0.0047653648
-0.22221415 0.014592586 -0.64268452 0.64709526 -0.25657713 0.71793872 0.034221932
-0.21803787 0.014905307 -0.64645457 0.66131401 -0.2131245 0.71919513 0.032879557
-0.22073703 0.024179956 -0.64275002 0.6917792 -0.31834903 0.6481477 0.032752652
-0.21844757 0.024303531 -0.64692587 0.71626079 -0.28365982 0.6375795 0.029573482
-0.22046022 0.03352724 -0.64480001 0.68068159 -0.40672383 0.60930151 0.039186072
-0.2169017 0.035338674 -0.64834279 0.64935619 -0.50178808 0.57144147 0.021116616
-0.21330988 0.041044936 -0.64681822 0.66258156 -0.46533164 0.58690041 0.029353857
-0.20508508 0.04566614 -0.64487875 0.7151435 -0.41302687 0.56389588 0.039480262
-0.19776681 0.046879053 -0.64728576 0.64428759 -0.36891973 0.66991925 0.053327203
-0.2020676 0.050669521 -0.64099997 0.70666194 -0.37159029 0.60212088 0.046201847
-0.19497405 0.055192977 -0.64548224 0.67834675 -0.34034374 0.65116179 0.060763989
-0.20190492 0.067494735 -0.6439411 0.78703672 -0.23083636 0.57209074 0.054763552
-0.19703618 0.061783817 -0.64588898 0.719459 -0.25151411 0.64739436 0.06109935
-0.20423999 0.070533343 -0.64400011 0.84630299 -0.05175031 0.53018206 0.037361067
-0.24563813 -0.00060952379 -0.63999999 0.036982629 -0.50713688 0.86107177 0.019276423
-0.26229656 0.0075107939 -0.63949996 -0.12020838 -0.50932282 0.85213858 0.010259557
-0.25434008 0.0054864171 -0.63797987 -0.019958232 -0.50077552 0.86534709 0.019251062
-0.24492477 0.0050612804 -0.63786554 0.078908391 -0.50735492 0.85811675 0.021604145
-0.23551019 0.0062751956 -0.63891476 0.29122204 -0.44106612 0.84891123 0.021964867
-0.22765402 0.0071266196 -0.63965011 0.48195574 -0.3529008 0.80198479 0.032127045
-0.26420125 0.015526828 -0.63513213 -0.17194037 -0.49086881 0.85409856 0.013096406
-0.25502262 0.013936999 -0.63230193 -0.018282464 -0.51223338 0.8586517 0.025468983
-0.24480471 0.014246206 -0.63312113 0.14459556 -0.48877698 0.8603425 0.030779401
-0.23453383 0.01480099 -0.6337924 0.36740404 -0.43733475 0.82082438 0.037213124
-0.22692785 0.015306901 -0.63733959 0.53728455 -0.32803935 0.77699143 0.03931962
-0.27028459 0.022793146 -0.63320005 -0.31105018 -0.45945206 0.83195645 0.006092479
-0.26602107 0.023043618 -0.63211995 -0.21238923 -0.49012521 0.84538054 0.016248276
-0.2313654 0.024832049 -0.63199985 0.5065999 -0.40179414 0.76283556 0.038228516
-0.22506803 0.025417795 -0.63567066 0.61185777 -0.40091228 0.68183535 0.036004741
-0.27077138 0.035875559 -0.63133335 -0.35301983 -0.39253873 0.84928817 0.0082062138
-0.23056543 0.031049207 -0.63099998 0.51848787 -0.47688738 0.70975268 0.037817627
-0.2240303 0.034022734 -0.63471192 0.60955393 -0.47382212 0.63556015 0.030794093
-0.21786246 0.037208058 -0.63672733 0.63631946 -0.48830351 0.5972079 0.029697848
-0.22139983 0.041796576 -0.63239998 0.59967101 -0.49957344 0.62515682 0.025003469
-0.21408938 0.043630503 -0.63507855 0.64817733 -0.49024808 0.58268607 0.027615398
-0.20809619 0.048843652 -0.63583332 0.73273468 -0.40444744 0.54728615 0.043603439
-0.20354664 0.054720629 -0.63599992 0.72573763 -0.38992393 0.56680173 0.048582032
-0.19871446 0.055772688 -0.63910532 0.71602803 -0.33985618 0.60975546 0.055129606
-0.20498149 0.065023161 -0.63510436 0.79549116 -0.25809428 0.54825294 0.041717686
-0.1993143 0.060952384 -0.63999999 0.76063794 -0.27020708 0.59026945 0.050448697
-0.20669197 0.070727088 -0.63233334 0.8598758 -0.036978215 0.50916237 0.040044777
-0.22016954 0.09638238 -0.63249999 0.87872666 0.32872227 0.34609407 0.055831261
-0.21767369 0.096510842 -0.63137501 0.87871253 0.32863495 0.34621286 0.055789869
-0.25302845 0.018662639 -0.62900013 -0.0015146636 -0.5032801 0.86412209 0.026427317
-0.24700777 0.018993879 -0.62885725 0.084072478 -0.48649326 0.86962992 0.032252781
-0.23662381 0.019568888 -0.62900001 0.31734681 -0.43177173 0.84431291 0.034974881
-0.26394242 0.027040085 -0.62834376 -0.21585746 -0.46634427 0.85786277 0.017832926
-0.25473961 0.024952373 -0.62608933 -0.074704766 -0.48903361 0.8690601 0.019889921
-0.24492805 0.025119102 -0.62549311 0.13173589 -0.45502412 0.88068086 0.035471436
-0.23588665 0.025315853 -0.627644 0.4116438 -0.43104079 0.80296528 0.036661185
-0.26449165 0.034688648 -0.62662268 -0.23431997 -0.44091931 0.86642033 0.021568093
-0.25657469 0.032107703 -0.62241662 -0.064504817 -0.43854815 0.89638984 0.036279116
-0.24402653 0.030515872 -0.62216663 0.13114059 -0.48045465 0.86715943 0.039797395
-0.23421513 0.034041289 -0.62455231 0.43540034 -0.51168579 0.74067819 0.029788738
-0.22684962 0.03744027 -0.62627786 0.55805403 -0.49824563 0.66357142 0.031756423
-0.26451978 0.043589763 -0.62275004 -0.32692191 -0.38169998 0.86453873 0.0077930931
-0.22312932 0.043147679 -0.62427253 0.55838156 -0.5275405 0.64024293 0.024249852
-0.21585017 0.047339946 -0.62690246 0.65282631 -0.47409469 0.59080631 0.026605191
-0.2099314 0.0496419 -0.62800002 0.67379326 -0.46317548 0.57573521 0.033448096
-0.26479429 0.053314291 -0.62199998 -0.41117397 -0.35315362 0.84036809 0.0055249287
-0.22104645 0.051557384 -0.62224996 0.5817346 -0.47471839 0.66047508 0.026295193
-0.21446998 0.054819919 -0.62386507 0.65611959 -0.434358 0.61712265 0.029667201
-0.20752029 0.055295467 -0.6270501 0.73413968 -0.4050695 0.54493821 0.040232461
-0.21272914 0.065106168 -0.62398034 0.73700553 -0.2655167 0.62154949 0.04308958
-0.20853296 0.062466837 -0.62676477 0.76584709 -0.3010661 0.56818789 0.041549098
-0.21181805 0.073342368 -0.62652177 0.83874208 -0.074086905 0.53946531 0.043825481
-0.20773986 0.074167341 -0.62845844 0.86148262 -0.015952889 0.50753629 0.035466496
-0.21267673 0.087069839 -0.62352383 0.86881042 0.11774542 0.4809413 0.044944074
-0.20845746 0.085899614 -0.62359095 0.8929764 0.11826138 0.43428957 0.036322802
-0.21457587 0.093011595 -0.62782753 0.90637589 0.24171105 0.34649456 0.045639426
-0.20918861 0.090925723 -0.62400001 0.90618807 0.17606603 0.38447866 0.037355945
-0.2537446 0.035702679 -0.61897826 -0.023783308 -0.42863286 0.90316564 0.035182945
-0.24497694 0.035266791 -0.61816186 0.10005573 -0.45630258 0.88418144 0.04197951
-0.23716909 0.037696749 -0.61885184 0.27951455 -0.49239764 0.82426703 0.038734309
-0.26295218 0.04604521 -0.61933339 -0.21116851 -0.41506061 0.88494784 0.030636789
-0.25496358 0.045198422 -0.61554176 -0.09278556 -0.43301752 0.89659721 0.040083677
-0.24537498 0.045087401 -0.6149016 0.09505365 -0.50132 0.86002505 0.037026793
-0.23527555 0.045159224 -0.6159113 0.26831105 -0.51426202 0.81458199 0.036433253
-0.22612979 0.046076789 -0.61805677 0.43471003 -0.50889093 0.74300551 0.026398761
-0.21930239 0.048046194 -0.61900002 0.57121205 -0.47907111 0.66648906 0.026998427
-0.26209107 0.055046193 -0.61737502 -0.2454416 -0.36727002 0.89714611 0.037179299
-0.25490943 0.05483916 -0.61305171 -0.19778746 -0.42002732 0.88569587 0.045659244
-0.24470107 0.052227262 -0.61159253 0.023978481 -0.50516653 0.86268872 0.039141253
-0.23419522 0.05307591 -0.61272341 0.25929299 -0.53129625 0.80653054 0.042055164
-0.2251206 0.055037212 -0.6167562 0.55405819 -0.45725468 0.69565636 0.027019419
-0.21882388 0.056639731 -0.61949998 0.58788812 -0.44409621 0.67614061 0.026929913
-0.26105779 0.062353015 -0.61444449 -0.37701461 -0.2934491 0.87849164 0.020567633
-0.25678656 0.062301289 -0.6119501 -0.33152732 -0.32077807 0.88723791 0.022202058
-0.2224838 0.061904456 -0.61274993 0.5782727 -0.35762933 0.73328167 0.036550611
-0.21705157 0.065374322 -0.61627465 0.67697614 -0.27557257 0.68246835 0.033731803
-0.2145838 0.075364403 -0.6156944 0.75091898 -0.1037219 0.65219814 0.048616257
-0.20856428 0.078470476 -0.61949998 0.85579813 0.0038708963 0.51729542 0.03615443
-0.26100346 0.084282286 -0.61199999 -0.42850727 -0.17820844 0.88578969 0.029101936
-0.25894761 0.084376186 -0.611 -0.38658637 -0.16128758 0.90804034 0.028970089
-0.22223878 0.085843727 -0.61247998 0.65583712 0.033124231 0.75417542 0.055909112
-0.21631265 0.084371731 -0.61675763 0.77580923 -0.00082476065 0.63096696 0.042623121
-0.20860475 0.080503806 -0.61699998 0.85905486 0.059504088 0.5084132 0.040101722
-0.22106376 0.094860367 -0.61316669 0.68499529 0.16780259 0.7089597 0.071001135
-0.2168491 0.095236808 -0.61414897 0.78180534 0.18135497 0.59656572 0.056323323
-0.21865779 0.093414545 -0.613307 0.75280643 0.15961437 0.63859671 0.057914637
-0.18053946 -0.04424753 -0.69740009 0.58330697 -0.34606072 0.73484355 0.019430982
-0.18764202 -0.021441648 -0.6915285 0.59685594 -0.17736906 0.78249818 0.047574967
-0.21050373 -0.029934436 -0.68571514 0.43972802 -0.46166232 0.77039415 0.028826511
-0.244619 0.056766655 -0.60757446 -0.023498517 -0.47014967 0.88227379 0.043770082
-0.23555617 0.05746844 -0.60829991 0.20479177 -0.45736957 0.86537468 0.04128585
-0.2288132 0.058833931 -0.60862499 0.40026709 -0.41702387 0.81601304 0.046248335
-0.25319356 0.066371024 -0.60697073 -0.27352235 -0.31649446 0.90830439 0.022644153
-0.24560799 0.064148992 -0.60481149 -0.097799763 -0.40280455 0.91004592 0.047444496
-0.23418602 0.06399224 -0.60582703 0.2244942 -0.39513201 0.89077103 0.047533255
-0.22583856 0.065746017 -0.60687345 0.47736561 -0.319096 0.81871843 0.036063533
-0.21860158 0.067388229 -0.60854548 0.60427845 -0.22500421 0.76434338 0.0287882
-0.26173368 0.075628929 -0.60618186 -0.40780419 -0.24359545 0.87997556 0.021371458
-0.25457031 0.075299665 -0.60408002 -0.31370467 -0.240905 0.91845208 0.026781855
-0.24477635 0.075556248 -0.60098463 -0.045528796 -0.25320098 0.96634173 0.047932312
-0.23558764 0.075202547 -0.60222989 0.17096259 -0.16941538 0.97060299 0.065551974
-0.2246971 0.074745402 -0.60380226 0.50426972 -0.20333935 0.83926463 0.041025296
-0.21863176 0.075067826 -0.60748273 0.616386 -0.15201102 0.77263242 0.031441003
-0.26041999 0.081780002 -0.60900003 -0.42291424 -0.19394262 0.88517219 0.024343297
-0.25378427 0.084314398 -0.60504186 -0.29220685 -0.1564949 0.9434641 0.038297344
-0.24597944 0.083846703 -0.60113519 -0.014384612 -0.13747081 0.99040145 0.069204941
-0.23371559 0.084684342 -0.60241532 0.24012235 -0.071782276 0.96808499 0.07809718
-0.22605854 0.085312709 -0.60555077 0.56590164 0.055513792 0.8226018 0.07115189
-0.21888006 0.080487616 -0.60799998 0.67526871 -0.042969726 0.73631912 0.052251365
-0.25313553 0.091955937 -0.60245466 -0.23485522 -0.040276829 0.97119552 0.051290359
-0.24857144 0.091238104 -0.60000002 -0.13635293 -0.050224639 0.98938632 0.073330879
-0.23280001 0.090857141 -0.60000002 0.28666809 0.012047819 0.95795417 0.073267132
-0.22418307 0.094376259 -0.60387504 0.57230222 0.2687318 0.77476013 0.071591295
-0.21923999 0.094540007 -0.60900003 0.6677742 0.18893035 0.71998823 0.070836477
-0.23037426 0.016832629 -0.64400375 0.55195743 -0.32752317 0.76685822 0.036893584
-0.20880736 0.00315672 -0.67098832 0.79849803 0.1543283 0.58187944 0.059112765
-0.2144094 0.0058830879 -0.66555244 0.80819601 0.071350813 0.5845753 0.045516793
-0.22098076 0.049524121 -0.63559693 0.672647 -0.44986451 0.58750987 0.029781763
-0.23478356 0.048370719 -0.62750518 0.37019935 -0.51585102 0.77256083 0.040994763
-0.20493519 -0.032522526 -0.6860646 0.4478696 -0.43999481 0.77834278 0.025436057
-0.21587513 -0.027575986 -0.68450683 0.40251133 -0.49579054 0.76953 0.030159347
-0.20600797 -0.032145374 -0.67886561 0.44165906 -0.47506732 0.7610836 0.024372814
-0.2424524 0.069027632 -0.59899998 -0.042110141 -0.28836048 0.9565956 0.047921665
-0.23413976 0.068538658 -0.59899998 0.20559973 -0.31061763 0.92803317 0.04282118
-0.24359334 0.071195431 -0.59899998 -0.05694123 -0.26618066 0.96223992 0.048123248
-0.23332477 0.07016857 -0.59899998 0.20679861 -0.28195006 0.93687701 0.045440055
-0.2432653 0.087025061 -0.59854162 0.052459259 -0.0091566043 0.99858111 0.078964911
-0.23796374 0.086068638 -0.59826446 0.12481506 0.0053746514 0.99216545 0.081588417
-0.24482787 0.080278099 -0.60407871 -0.0078198239 -0.18152918 0.98335451 0.059512299
-0.24407986 0.093509689 -0.59579831 -0.046577603 0.11425363 0.9923591 0.091737002
-0.23547144 0.094130814 -0.59573239 0.2045892 0.096626334 0.97406709 0.080847837
-0.22821218 0.096604645 -0.59786671 0.35330915 0.060464781 0.9335506 0.065579072
-0.2390921 0.024437919 -0.63549227 0.33348748 -0.45539764 0.82546902 0.043653563
-0.2300127 0.016998345 -0.64169997 0.55372292 -0.33556139 0.76209551 0.036650434
-0.22559039 0.035631683 -0.63393164 0.60034937 -0.47237241 0.64532548 0.03095869
-0.23030604 0.052533984 -0.62706405 0.47992593 -0.49235383 0.72612596 0.034430671
