# .PCD v0.7 - Point Cloud Data file format
VERSION 0.7
FIELDS x y z normal_x normal_y normal_z curvature
SIZE 4 4 4 4 4 4 4
TYPE F F F F F F F
COUNT 1 1 1 1 1 1 1
WIDTH 581
HEIGHT 1
VIEWPOINT 0 0 0 1 0 0 0
POINTS 581
DATA ascii
-0.2539638 -0.056508571 -0.68199998 0.0018126167 -0.54801929 0.83646375 0.0082150809
-0.2292819 -0.056508571 -0.68199998 0.17966065 -0.53823894 0.82342029 0.0070630601
-0.22644168 -0.056204524 -0.68224996 0.21357282 -0.53506106 0.81737155 0.006618429
-0.2236 -0.055900481 -0.6825 0.24213389 -0.52505159 0.81589949 0.005951344
-0.2204573 -0.055927467 -0.68283337 0.26550031 -0.51945651 0.81220347 0.0056657642
-0.21747588 -0.055724129 -0.68300003 0.28399181 -0.51859224 0.80648047 0.0055215643
-0.22278669 -0.053910479 -0.68199998 0.25018653 -0.52469182 0.81369841 0.0059062592
-0.2208381 -0.053910479 -0.68199998 0.26184738 -0.52139211 0.81214911 0.0057660881
-0.21769649 -0.053287309 -0.68233335 0.28361049 -0.52135694 0.80483049 0.0057947026
-0.21472421 -0.052413333 -0.68280005 0.30813944 -0.51873296 0.79747486 0.005407426
-0.21205525 -0.051387619 -0.68300003 0.33195779 -0.51079929 0.79302466 0.0050547896
-0.21423082 -0.04960477 -0.68233335 0.31423253 -0.5158633 0.79695851 0.0056721261
-0.21130125 -0.049412385 -0.68266672 0.34047294 -0.50659847 0.79210877 0.0058397525
-0.20880289 -0.04878572 -0.68300003 0.36389348 -0.5007419 0.78539097 0.0064448602
-0.20864938 -0.046800163 -0.6825 0.36482871 -0.49875841 0.78621888 0.0063014366
-0.206201 -0.046834283 -0.68300003 0.39010915 -0.49127564 0.77875733 0.0058651729
-0.20773241 -0.044406038 -0.68233335 0.3797206 -0.49252039 0.78309381 0.0063390131
-0.20530002 -0.043816961 -0.68260002 0.40062138 -0.48541307 0.77709502 0.0053898455
-0.20280002 -0.04290048 -0.6825 0.42363462 -0.47518486 0.77118939 0.0049202195
-0.1999564 -0.042801332 -0.68300003 0.45351326 -0.46896005 0.75789326 0.0041024033
-0.2020019 -0.040920001 -0.68199998 0.43449825 -0.4712922 0.7675252 0.0049392162
-0.19945225 -0.040280476 -0.6821667 0.46032047 -0.46371296 0.75701743 0.0049874783
-0.19656444 -0.040093333 -0.68266672 0.48939329 -0.45961845 0.74111074 0.0049981321
-0.1987543 -0.038321909 -0.68199998 0.47102943 -0.46009624 0.75262392 0.0046344427
-0.19603524 -0.037907626 -0.68233335 0.4978326 -0.44965479 0.74160188 0.0051225005
-0.19396381 -0.0374927 -0.68266672 0.51971775 -0.44463027 0.72951859 0.0059421612
-0.19189049 -0.03707714 -0.68300003 0.53859872 -0.43055427 0.72424746 0.0066130664
-0.1935581 -0.03507429 -0.68199998 0.52847427 -0.41898465 0.73835415 0.0070618507
-0.19109982 -0.034450643 -0.68250006 0.55661964 -0.40711069 0.72417921 0.0083258934
-0.18996987 -0.030975558 -0.68233335 0.59151381 -0.36552849 0.71867955 0.012225192
-0.18979955 -0.028600002 -0.6825 0.61352241 -0.32025898 0.72182018 0.017284207
-0.1879876 -0.02797048 -0.68300003 0.62629068 -0.30144146 0.71895272 0.018722074
-0.18901139 -0.025980955 -0.68199998 0.63589728 -0.27961627 0.71933961 0.022750754
-0.18735717 -0.025093904 -0.68260002 0.64723498 -0.26150969 0.71603048 0.022544852
-0.1853857 -0.02406762 -0.68300003 0.66174579 -0.23395315 0.71229106 0.024951549
-0.18459955 -0.022100003 -0.6825 0.67710763 -0.20293652 0.70734847 0.02797973
-0.1827838 -0.022116195 -0.68300003 0.68196982 -0.19414961 0.70514053 0.027281517
-0.1838152 -0.020135241 -0.68199998 0.68533498 -0.16779797 0.70863235 0.031892985
-0.1825162 -0.019485716 -0.68199998 0.69393116 -0.14979811 0.70428687 0.034132347
-0.1825162 -0.017537139 -0.68199998 0.69563597 -0.11539491 0.70906597 0.037481397
-0.18173873 -0.012780001 -0.68233335 0.70099545 -0.034238487 0.71234351 0.044584107
-0.18199955 -0.010400001 -0.6825 0.69284177 -0.0070630419 0.72105515 0.047389928
-0.1864133 -0.0071447622 -0.68199998 0.67651457 0.053464446 0.73448604 0.054179758
-0.18433809 -0.0075812708 -0.68233335 0.67932326 0.023180867 0.73347294 0.051208027
-0.18226098 -0.0080184136 -0.68266672 0.67823684 0.002967017 0.73483735 0.05288421
-0.19021809 -0.0037700951 -0.68259996 0.65669864 0.10626738 0.74662846 0.063689239
-0.18719999 -0.0045495238 -0.6825 0.65744925 0.074122809 0.74984413 0.059682894
-0.18495207 -0.0054206355 -0.68300003 0.656977 0.048678409 0.75233752 0.058761191
-0.1959397 -0.0015155552 -0.68200004 0.69507819 0.15383402 0.70228297 0.057710845
-0.1933416 -0.0010825396 -0.68200004 0.66557914 0.14212824 0.73266906 0.063001812
-0.19189049 -0.0019514289 -0.68300003 0.65356588 0.12187035 0.74699348 0.063654713
-0.19550671 0.00064952392 -0.68199998 0.68733275 0.157443 0.70907366 0.061810501
-0.19386886 0.001082857 -0.68233335 0.66021675 0.13901095 0.73809874 0.066715442
-0.19597475 0.0045504761 -0.6825 0.6664269 0.17030352 0.72585946 0.075418517
-0.1944924 0.003252381 -0.68300003 0.6552372 0.15615436 0.73910755 0.072616778
-0.1968057 0.00844381 -0.68199998 0.67400724 0.12463147 0.72813553 0.091997892
-0.1987543 0.01104191 -0.68199998 0.69544649 0.10631903 0.71066898 0.10074972
-0.2075019 0.01366 -0.68300003 0.76238608 0.30183291 0.57241976 0.087780684
-0.20555049 0.014310475 -0.68300003 0.76940799 0.10668062 0.62978613 0.1073631
-0.20345005 0.014300475 -0.6825 0.73984063 0.041772831 0.67148411 0.11370226
-0.19940379 0.01234095 -0.68199998 0.69987041 0.064943701 0.71131122 0.10871568
-0.19839519 0.017562861 -0.68300003 0.62361401 -0.28967932 0.72607958 0.11310125
-0.1961562 0.017537139 -0.68199998 0.59416807 -0.29513475 0.74823773 0.11126865
-0.18061557 0.01973111 -0.68300003 0.29949364 -0.41487506 0.85917532 0.076081693
-0.17823049 0.02016476 -0.68300003 0.23805244 -0.41873616 0.876351 0.060843043
-0.1756286 0.02016476 -0.68300003 0.19454604 -0.42527226 0.88390917 0.054255329
-0.17205097 0.019839521 -0.68300003 0.18587872 -0.42642087 0.88521999 0.045938421
-0.1691238 0.02016476 -0.68300003 0.10675678 -0.45420471 0.88447785 0.035193443
-0.16652191 0.02016476 -0.68300003 0.068100214 -0.45358822 0.88860571 0.031594101
-0.18148288 0.022116195 -0.68300003 0.29191095 -0.45566806 0.84092486 0.066640005
-0.17841165 0.022220001 -0.68220001 0.22720119 -0.46830133 0.85385799 0.05108206
-0.17558798 0.021867305 -0.68200004 0.20433283 -0.46761334 0.85999173 0.044378687
-0.1730746 0.021877781 -0.68233335 0.18460672 -0.46815214 0.86414927 0.038756754
-0.16960828 0.022094287 -0.68233335 0.10118642 -0.48514676 0.86855853 0.030005494
-0.1671724 0.021465721 -0.68300003 0.065090813 -0.47803074 0.87592793 0.029058203
-0.18733715 0.026669521 -0.68300003 0.3627708 -0.52194655 0.77199042 0.054563493
-0.18451844 0.026235869 -0.68300003 0.3131972 -0.52389646 0.7921111 0.052773312
-0.1821036 0.025086096 -0.68239999 0.28139105 -0.50619107 0.81522363 0.052224126
-0.1786191 0.02403238 -0.68199998 0.20019533 -0.50315905 0.84068596 0.043534748
-0.1864133 0.02792953 -0.68199998 0.32956031 -0.54793966 0.76886421 0.048605952
-0.18446475 0.02792953 -0.68199998 0.29561478 -0.54952389 0.78143167 0.043289997
-0.24933331 -0.064114287 -0.68000001 0.017879916 -0.55206704 0.83360797 0.0083501851
-0.24739051 -0.064114287 -0.68000001 0.027297074 -0.55070215 0.8342554 0.0089540556
-0.2448 -0.064114287 -0.68000001 0.038604587 -0.54673654 0.83641428 0.007896536
-0.25019681 -0.06109206 -0.68000001 0.021309128 -0.55208582 0.83351499 0.0088965567
-0.24739051 -0.061523817 -0.68000001 0.030573592 -0.55276257 0.83277774 0.0083524082
-0.24462017 -0.061479211 -0.67950004 0.043004528 -0.55131543 0.8331877 0.0086975973
-0.24193411 -0.061077308 -0.67983335 0.054445848 -0.55010635 0.83331794 0.0084675597
-0.2363809 -0.060228571 -0.68000001 0.097381681 -0.55105782 0.82876533 0.0090219053
-0.2508876 -0.058415234 -0.68000001 0.017174063 -0.55120552 0.83419263 0.0081301527
-0.24748762 -0.058088005 -0.67919999 0.032069821 -0.55327135 0.83238351 0.0079380097
-0.24444 -0.058200005 -0.67900002 0.046446357 -0.55186981 0.83263588 0.0079486743
-0.24138366 -0.058243018 -0.67949998 0.064247891 -0.55193543 0.83140808 0.0088008298
-0.23832381 -0.058285709 -0.68000001 0.08341302 -0.55049616 0.83066016 0.0090075443
-0.2357333 -0.058285709 -0.68000001 0.10410701 -0.55023605 0.82849383 0.0091882069
-0.23249523 -0.0579619 -0.68000001 0.1373443 -0.54948139 0.82414007 0.0082165143
-0.26293331 -0.05504762 -0.68000001 -0.070929959 -0.53894413 0.83934987 0.0063634901
-0.2593714 -0.05537143 -0.68000001 -0.042378921 -0.5438509 0.8381111 0.0066407104
-0.25642166 -0.055425402 -0.67933339 -0.018199032 -0.54582131 0.837704 0.007785812
-0.25090671 -0.056260001 -0.67900002 0.01821195 -0.54911548 0.83554804 0.0080945054
-0.24702665 -0.056260001 -0.67900002 0.039039806 -0.55173916 0.83310258 0.007575464
-0.24443999 -0.056260001 -0.67900002 0.049287155 -0.55007643 0.83365852 0.0080646239
-0.24163781 -0.055828892 -0.67900008 0.066987246 -0.54894167 0.83317214 0.0081745218
-0.23873684 -0.055640951 -0.67933333 0.084343925 -0.55109155 0.83017117 0.0083592804
-0.23547307 -0.055634048 -0.67925006 0.1052906 -0.55201983 0.8271566 0.0081574321
-0.23261753 -0.055792004 -0.6796 0.13635179 -0.55143142 0.8230015 0.0086031603
-0.22981977 -0.055351194 -0.67974997 0.17218165 -0.54825908 0.81839204 0.0079106577
-0.22666669 -0.05504762 -0.68000001 0.20700902 -0.53840619 0.81686354 0.0066705495
-0.26474637 -0.052432068 -0.6796667 -0.081563406 -0.53761667 0.83923525 0.0057898751
-0.26273999 -0.05306619 -0.67949998 -0.070543922 -0.53970212 0.8388952 0.0058743334
-0.25964874 -0.05317181 -0.67919999 -0.04472933 -0.54013163 0.84039104 0.0065620467
-0.2373267 -0.053673331 -0.67900002 0.093124725 -0.55140972 0.82902062 0.0079449126
-0.2356022 -0.053242221 -0.67900008 0.10963193 -0.54994839 0.82797199 0.0085253092
-0.23280001 -0.053673331 -0.67900002 0.13494104 -0.55176246 0.82301217 0.0083058225
-0.22919159 -0.052824285 -0.67916667 0.18416575 -0.54146838 0.82030171 0.0070134117
-0.22674026 -0.052723095 -0.67925006 0.20879617 -0.54074842 0.81485909 0.0071602068
-0.22374916 -0.052670289 -0.67940009 0.2383303 -0.52926099 0.81429821 0.005554853
-0.22056717 -0.05174619 -0.67916667 0.26344538 -0.52497107 0.80932182 0.0057993061
-0.2176 -0.0511619 -0.68000001 0.28321123 -0.52064055 0.80543447 0.0052890792
-0.2156571 -0.0511619 -0.68000001 0.29331225 -0.51980835 0.802351 0.0052934322
-0.22698 -0.049793329 -0.67900002 0.20755458 -0.5366804 0.81786019 0.0067376038
-0.21922 -0.049793329 -0.67900002 0.27160728 -0.52486682 0.8066873 0.0055759335
-0.21735977 -0.049165003 -0.67925006 0.28583696 -0.52252209 0.80328566 0.0055932249
-0.21511969 -0.048979368 -0.6796667 0.30406788 -0.51892269 0.79891294 0.0060617449
-0.21412504 -0.046900719 -0.67925 0.31476384 -0.51477581 0.79745191 0.0059909583
-0.2114497 -0.046485525 -0.67980003 0.33902657 -0.50714952 0.79237646 0.0060126716
-0.21120134 -0.044102669 -0.67900002 0.34254345 -0.50356293 0.7931509 0.0056501077
-0.20854019 -0.043106668 -0.6796 0.36845621 -0.49436584 0.78730083 0.0060765985
-0.20594285 -0.04209524 -0.68000001 0.39476603 -0.48389417 0.78102899 0.0055270703
-0.20758 -0.040739998 -0.67900002 0.3810457 -0.48631388 0.78632247 0.0055674762
-0.20552507 -0.04032889 -0.67933339 0.40247592 -0.47923744 0.77996445 0.0055873054
-0.20296383 -0.040022857 -0.68000001 0.42088762 -0.4737359 0.77358115 0.0053216768
-0.20240667 -0.038153343 -0.67900008 0.42749944 -0.46797162 0.77346414 0.0049871691
-0.1993205 -0.037534758 -0.67949998 0.45770475 -0.4588517 0.76155204 0.0048275241
-0.1968762 -0.036914289 -0.68000001 0.48506111 -0.44754755 0.75127691 0.0056665167
-0.1985267 -0.03492 -0.67900002 0.47906873 -0.44203269 0.75835371 0.0075055007
-0.19658665 -0.03492 -0.67900002 0.49428675 -0.43476608 0.75276762 0.0071796579
-0.19415617 -0.033805713 -0.68000001 0.52653027 -0.41436031 0.74234188 0.0086858291
-0.19637111 -0.03254889 -0.67900008 0.51025301 -0.41758153 0.7518428 0.0099179251
-0.19344795 -0.031055555 -0.67933339 0.5459972 -0.38788322 0.74258584 0.01262672
-0.19104759 -0.031085715 -0.68000001 0.5689404 -0.37863389 0.73002958 0.011413815
-0.19205999 -0.029100001 -0.67900002 0.57689881 -0.35188758 0.7371316 0.0170139
-0.19104759 -0.028495241 -0.68000001 0.59026062 -0.3394385 0.7323755 0.017580312
-0.19025955 -0.025885712 -0.67949998 0.62311131 -0.28554657 0.7281453 0.025347296
-0.19012001 -0.02392667 -0.67900002 0.63276744 -0.26463157 0.72771937 0.028118161
-0.18760264 -0.022642141 -0.67925006 0.65824181 -0.22888117 0.71716875 0.029192852
-0.18573001 -0.022003334 -0.67949998 0.66717505 -0.2159192 0.71292096 0.028631251
-0.18443523 -0.019414285 -0.67949998 0.68911356 -0.15972848 0.70683056 0.032736547
-0.18365335 -0.016813336 -0.67900002 0.69816005 -0.10194021 0.70864701 0.039129116
-0.181981 -0.01619048 -0.68000001 0.7015444 -0.094951138 0.70627165 0.039800253
-0.18369827 -0.013583016 -0.67916673 0.70273727 -0.044191159 0.71007574 0.042191841
-0.181981 -0.01424762 -0.68000001 0.7020756 -0.055802424 0.7099126 0.043617841
-0.1868867 -0.010346665 -0.67900002 0.6940006 0.013658938 0.71984488 0.046161462
-0.18443507 -0.010354126 -0.67950004 0.69795728 0.0044430285 0.71612573 0.046391673
-0.18990444 -0.0075444449 -0.67900008 0.68725258 0.075809337 0.72245193 0.05215124
-0.1878095 -0.0077714287 -0.68000001 0.67762661 0.053805828 0.73343509 0.053031754
-0.18521905 -0.008419048 -0.68000001 0.68687809 0.022410927 0.72642708 0.04914638
-0.19349572 -0.0038823809 -0.67950004 0.69419217 0.12026747 0.70967108 0.052582189
-0.19052224 -0.0053939684 -0.6796667 0.67651552 0.089069813 0.73102218 0.053597201
-0.1878095 -0.005828571 -0.68000001 0.66986507 0.075384051 0.73864603 0.054816324
-0.1988191 -0.00064761908 -0.68000001 0.7176649 0.16902253 0.6755653 0.053032778
-0.1968762 -0.00064761908 -0.68000001 0.70726734 0.16140732 0.68827361 0.05493658
-0.1936381 -0.0019428571 -0.68000001 0.68786734 0.13218264 0.71369892 0.058500104
-0.2011133 0.00194 -0.67900002 0.73020864 0.20020333 0.65323353 0.052788243
-0.19905525 0.0015092064 -0.67933339 0.71304184 0.18719099 0.67567062 0.055865228
-0.19680357 0.0012945238 -0.67974997 0.70038372 0.15770435 0.69612646 0.059543099
-0.1949333 0.0019428571 -0.68000001 0.6839996 0.15034278 0.71382177 0.064193144
-0.1985267 0.0051733335 -0.67900002 0.70579934 0.18124452 0.68483406 0.063888036
-0.19694762 0.0045319996 -0.67980003 0.69052112 0.17108704 0.70278728 0.068710931
-0.20154443 0.0075444449 -0.67900008 0.72651982 0.19574314 0.65867561 0.066956557
-0.19939312 0.0077688098 -0.67975003 0.71008676 0.15940914 0.68583196 0.076506324
-0.19709206 0.0075555556 -0.68000001 0.68853271 0.13702583 0.71214229 0.08191178
-0.20164317 0.010567617 -0.67933339 0.73471242 0.14792731 0.6620537 0.082758032
-0.19968258 0.010146031 -0.68000001 0.7136454 0.13244641 0.68787217 0.089497618
-0.1975238 0.0097142858 -0.68000001 0.69312704 0.095753461 0.71442723 0.092464752
-0.20499329 0.01228667 -0.67900002 0.7709865 0.1939937 0.60658574 0.080495827
-0.20264478 0.012819238 -0.67980003 0.75187236 0.10099928 0.65152681 0.097029634
-0.1993936 0.013594522 -0.67975003 0.71804547 0.0069446056 0.69596148 0.10548431
-0.1968762 0.01489524 -0.68000001 0.6761294 -0.14118172 0.72312981 0.11350807
-0.1949333 0.01489524 -0.68000001 0.64107311 -0.1661353 0.74928254 0.11368059
-0.1968762 0.01619048 -0.68000001 0.66160399 -0.20846406 0.72029352 0.1140045
-0.1949333 0.01619048 -0.68000001 0.61810738 -0.24092919 0.74826229 0.11151829
-0.1793905 0.0239619 -0.68000001 0.27613392 -0.49894243 0.82146609 0.048905872
-0.17518096 0.023638092 -0.68000001 0.19656672 -0.50790948 0.83868319 0.033883825
-0.17196667 0.023518413 -0.6796667 0.16214141 -0.51405817 0.84229118 0.025908845
-0.16942665 0.02392667 -0.67900002 0.082515515 -0.54125899 0.83679748 0.020011213
-0.1806857 0.026552379 -0.68000001 0.25794831 -0.5364719 0.80352998 0.039441027
-0.17867738 0.025894998 -0.67975003 0.21098001 -0.5374639 0.81646806 0.033951975
-0.17602289 0.025885236 -0.67949998 0.19067264 -0.53803277 0.82107526 0.027272634
-0.17265999 0.025866669 -0.67900002 0.13230941 -0.56385887 0.81520385 0.019826828
-0.16942665 0.025866665 -0.67900002 0.088371195 -0.56148535 0.82275432 0.019629404
-0.18457143 0.029142862 -0.68000001 0.30603656 -0.56504381 0.76620305 0.036312807
-0.1812 0.028473809 -0.67949998 0.24631889 -0.56527388 0.78726894 0.032192901
-0.17854595 0.028463572 -0.67925 0.17121953 -0.5760392 0.79928893 0.021632748
-0.17589335 0.028453335 -0.67900002 0.1747953 -0.57643652 0.79822779 0.018268356
-0.17265999 0.028453335 -0.67900002 0.12962654 -0.58397597 0.80135447 0.016242329
-0.16964221 0.028237781 -0.67900008 0.093385212 -0.5791012 0.80988955 0.018363202
-0.18430001 0.03039333 -0.67900008 0.28264797 -0.58774304 0.75806874 0.030296087
-0.18106665 0.03039333 -0.67900002 0.20252116 -0.59442019 0.77823508 0.02084974
-0.17848 0.03039333 -0.67900002 0.16313529 -0.59377748 0.78791833 0.017708926
-0.17589335 0.03039333 -0.67900002 0.16791856 -0.58692753 0.79203504 0.015701709
-0.1730911 0.030824443 -0.67900008 0.14779003 -0.59155822 0.79260135 0.015853999
-0.1752467 0.040739998 -0.67900002 0.20563714 -0.59232283 0.77901661 0.017205112
-0.1752467 0.04203333 -0.67900002 0.2092496 -0.59087688 0.77915275 0.018177645
-0.17265999 0.04203333 -0.67900008 0.2203186 -0.58404672 0.78124845 0.018588707
-0.25312001 -0.054885719 -0.67799997 0.0026389228 -0.54707587 0.83707893 0.0079936432
-0.25053716 -0.054885719 -0.67799997 0.017241938 -0.54859972 0.83590734 0.0071445941
-0.24763146 -0.055208579 -0.67799997 0.032794748 -0.55109316 0.83379912 0.0073003932
-0.24408001 -0.054885719 -0.67799997 0.051136322 -0.55300432 0.83160764 0.00800463
-0.2421429 -0.054885719 -0.67799997 0.065197997 -0.55016911 0.83250415 0.0078860493
-0.26935709 -0.05207143 -0.67500001 -0.12924013 -0.52916121 0.8386212 0.0053807348
-0.26547214 -0.051806428 -0.67574996 -0.097346872 -0.53238708 0.84088504 0.0055582151
-0.26216 -0.051011428 -0.67799997 -0.065419763 -0.5378353 0.84050786 0.0058609941
-0.25677907 -0.052733339 -0.67799997 -0.022866864 -0.53985381 0.84144813 0.0074028498
-0.25337929 -0.052734047 -0.67524999 -0.0032863123 -0.54253298 0.84002811 0.0076591647
-0.25080737 -0.052734047 -0.67524999 0.010461192 -0.54307216 0.83962083 0.0070790984
-0.2475 -0.052714288 -0.67500007 0.033037521 -0.54540861 0.83751899 0.0073739956
-0.24437597 -0.052734047 -0.67525005 0.05316548 -0.54663581 0.83568102 0.0072017335
-0.24148715 -0.052805878 -0.67616671 0.067600936 -0.5464406 0.83476514 0.0069699134
-0.23873766 -0.052910008 -0.67750001 0.083687887 -0.54695398 0.83296913 0.0074833916
-0.23568575 -0.05230286 -0.67799997 0.10836611 -0.55072665 0.82762128 0.0079682004
-0.23245716 -0.05230286 -0.67799997 0.14231728 -0.55006331 0.82290709 0.0081477035
-0.23008953 -0.051441908 -0.67799997 0.16915448 -0.54267824 0.82273144 0.007461309
-0.2253543 -0.051657144 -0.67799997 0.2222691 -0.53279114 0.81653547 0.0063500931
-0.2240629 -0.051011428 -0.67799997 0.23657672 -0.52971649 0.81451327 0.0058567976
-0.26839283 -0.049821425 -0.67500001 -0.13096958 -0.52399766 0.84158981 0.0057451515
-0.26546738 -0.049195509 -0.67585719 -0.11302193 -0.52569515 0.84313148 0.0060337866
-0.2623305 -0.04869112 -0.67566675 -0.085280299 -0.52689433 0.84564149 0.006875582
-0.25955886 -0.049801908 -0.67560005 -0.054228783 -0.53601855 0.84246266 0.0065750559
-0.25650001 -0.050357141 -0.67500007 -0.025467647 -0.53811908 0.842484 0.0071637868
-0.2475 -0.050785709 -0.67500001 0.032455713 -0.54116935 0.84028709 0.0072838194
-0.24428575 -0.050785709 -0.67500001 0.052664727 -0.54096919 0.83939183 0.0062440909
-0.24171425 -0.050142854 -0.67500001 0.066027239 -0.54105598 0.83839065 0.005874957
-0.23855858 -0.050155398 -0.67516673 0.084244564 -0.542651 0.83572286 0.0066645327
-0.23546 -0.05018048 -0.67550004 0.10893123 -0.54601353 0.83066434 0.007315943
-0.23244679 -0.049707267 -0.67562509 0.14131431 -0.54216683 0.8283028 0.0075374371
-0.22964934 -0.048815813 -0.67620009 0.17476289 -0.53598297 0.82594192 0.0066897236
-0.2269686 -0.049074285 -0.67799997 0.20997919 -0.53206807 0.82025135 0.0059980415
-0.22353946 -0.048888005 -0.67720002 0.24131002 -0.52899843 0.81359094 0.0058527812
-0.2208343 -0.049074285 -0.67799997 0.26095062 -0.5267365 0.80898291 0.0056329365
-0.2188971 -0.048428569 -0.67799997 0.27397776 -0.52439731 0.80619085 0.0054613338
-0.26550001 -0.04692857 -0.67500007 -0.11754993 -0.52241701 0.8445487 0.0065187621
-0.26228577 -0.04692857 -0.67500001 -0.090826392 -0.52486497 0.84632576 0.0072180484
-0.26035711 -0.04692857 -0.67500001 -0.072581194 -0.52601606 0.84737182 0.0072894571
-0.2320714 -0.04692857 -0.67500001 0.14996025 -0.53651363 0.83046073 0.0060603465
-0.22937846 -0.046442099 -0.67540002 0.180006 -0.53503275 0.82543194 0.0058229882
-0.22678813 -0.046389051 -0.67650008 0.21187735 -0.52720702 0.82289785 0.0050342926
-0.22323632 -0.046320163 -0.67550009 0.24270089 -0.52450484 0.81608266 0.0044468082
-0.22034527 -0.046389051 -0.67650008 0.26439014 -0.52378839 0.80977994 0.0045533064
-0.2173911 -0.046446349 -0.67733335 0.28727612 -0.5209111 0.80381852 0.0051445933
-0.21502291 -0.04584571 -0.67799997 0.31056601 -0.51644504 0.79801828 0.0061492566
-0.22885714 -0.04435714 -0.67500001 0.19105184 -0.52961701 0.82644117 0.0052373703
-0.22628576 -0.043714285 -0.67500001 0.21774089 -0.52413523 0.82332927 0.0037374801
-0.2243571 -0.04435714 -0.67500001 0.23316567 -0.52261662 0.82006437 0.0038639284
-0.22049999 -0.043842856 -0.67500001 0.26433513 -0.52142733 0.81132025 0.0038956483
-0.21736598 -0.043730717 -0.67524999 0.2879732 -0.51634645 0.80650955 0.0047401264
-0.2145462 -0.043812227 -0.67650002 0.31270304 -0.51183736 0.80014956 0.0052435617
-0.21244 -0.043262862 -0.67799997 0.33759883 -0.50605392 0.79368538 0.0055854688
-0.21921431 -0.04178571 -0.67500001 0.27399671 -0.51915205 0.80957204 0.004373088
-0.21707147 -0.041357141 -0.67500007 0.29375878 -0.51444352 0.80563873 0.0042510293
-0.2143911 -0.040949203 -0.67533338 0.31501535 -0.50853622 0.80134648 0.0045152581
-0.21157333 -0.040385239 -0.67575002 0.34516329 -0.50057733 0.79390466 0.0052695419
-0.20879051 -0.040210795 -0.67733335 0.37297535 -0.49124318 0.78712744 0.0060977433
-0.20598289 -0.039388571 -0.67799997 0.39707321 -0.48071289 0.78182352 0.0058900821
-0.2076429 -0.03792857 -0.67500001 0.38045317 -0.48906332 0.78490287 0.0062682643
-0.20560214 -0.037705474 -0.67675 0.40377909 -0.4811607 0.77810466 0.0069323843
-0.20269936 -0.036679056 -0.67566675 0.42286557 -0.47378176 0.77247357 0.0055819605
-0.20017144 -0.036805719 -0.67799997 0.44785309 -0.46115184 0.76600695 0.005721265
-0.2050714 -0.03535714 -0.67500001 0.40690571 -0.48240727 0.77570027 0.0065486594
-0.20264935 -0.034740161 -0.67550009 0.43176487 -0.46893686 0.77050459 0.0063183331
-0.20002335 -0.034843341 -0.67750001 0.46191016 -0.45201898 0.76309747 0.007157146
-0.20185715 -0.03278571 -0.67500001 0.44995454 -0.45789984 0.76672602 0.0073841079
-0.19905239 -0.031960953 -0.67566669 0.47951531 -0.43709385 0.7609297 0.0097063724
-0.19679256 -0.030801717 -0.67660004 0.51291049 -0.41066566 0.7538411 0.012545641
-0.19864281 -0.02892857 -0.67500001 0.50866139 -0.41036689 0.75687689 0.015069199
-0.19636063 -0.02832794 -0.67600006 0.53975528 -0.37900385 0.75167829 0.018809738
-0.19371429 -0.028411435 -0.67799997 0.55987626 -0.35718283 0.74763554 0.018466644
-0.1917772 -0.027765719 -0.67799997 0.58696032 -0.33332372 0.73781627 0.020459646
-0.19573903 -0.025941588 -0.67533338 0.56327885 -0.34994772 0.74850082 0.022867974
-0.19347146 -0.025616189 -0.67580009 0.58469218 -0.32533452 0.74316388 0.024836689
-0.1917772 -0.025828574 -0.67799997 0.60373932 -0.30726847 0.73558468 0.024474557
-0.19321404 -0.0226932 -0.67528576 0.62024122 -0.2757917 0.73432946 0.031396136
-0.19058941 -0.022221496 -0.67771429 0.6456489 -0.24213837 0.72422814 0.031792425
-0.1879029 -0.021308569 -0.67799997 0.66501456 -0.21445557 0.71537709 0.031374935
-0.1922143 -0.019285716 -0.67500001 0.65761524 -0.20832364 0.72397757 0.036538575
-0.19020352 -0.019343179 -0.67700005 0.66925675 -0.18840028 0.71874946 0.037126452
-0.18725714 -0.019371429 -0.67799997 0.67900711 -0.17669827 0.71254975 0.035505682
-0.18532 -0.018725719 -0.67799997 0.69001812 -0.15168004 0.7077204 0.034743972
-0.1922143 -0.017357141 -0.67500001 0.67422855 -0.15716256 0.72160637 0.042004537
-0.19049691 -0.016733097 -0.67575008 0.68594408 -0.13646732 0.7147429 0.042707205
-0.18771683 -0.016772067 -0.67733335 0.69597858 -0.12052699 0.70787501 0.040006656
-0.18532 -0.016788576 -0.67799997 0.697254 -0.10527844 0.70905095 0.037697639
-0.18964291 -0.0135 -0.67500007 0.71213448 -0.04650636 0.70050102 0.042302385
-0.18765526 -0.013541799 -0.67711115 0.70508766 -0.046360567 0.70760298 0.042720798
-0.18532 -0.01356 -0.67799997 0.69916898 -0.048886832 0.71328312 0.043090403
-0.18941861 -0.01030857 -0.67649996 0.71349072 0.016841434 0.70046222 0.044642363
-0.1879029 -0.010331427 -0.67799997 0.69800931 0.015136722 0.71592867 0.044113528
-0.19134669 -0.0079638101 -0.67799997 0.7027691 0.082378529 0.70663244 0.051265545
-0.19306859 -0.0058114291 -0.67799997 0.70345163 0.098736331 0.70385152 0.050098795
-0.1917772 -0.0058114291 -0.67799997 0.70008957 0.090844825 0.70825267 0.051300537
-0.19934802 0.0042577139 -0.67739999 0.72019118 0.18988915 0.66728318 0.058630563
-0.2023043 0.010307143 -0.67649996 0.75248963 0.15607503 0.63984376 0.070811026
-0.18455428 0.03202362 -0.67519999 0.33388081 -0.56606323 0.75372142 0.025332009
-0.18116689 0.032060955 -0.67600006 0.22393325 -0.59451663 0.77227187 0.01740708
-0.17828801 0.032356571 -0.67680007 0.19879562 -0.59895164 0.7757172 0.013459086
-0.17563429 0.032285716 -0.67799997 0.16224426 -0.60289431 0.78114992 0.013698551
-0.17219047 0.03207048 -0.67799997 0.15728842 -0.59590131 0.78750354 0.014853397
-0.1698229 0.031640001 -0.67799997 0.12564117 -0.59433824 0.79434013 0.015023614
-0.17829126 0.034756988 -0.67583346 0.20627271 -0.59573936 0.77623844 0.01411729
-0.1751162 0.03476572 -0.67600012 0.21498205 -0.59268498 0.77621341 0.013961617
-0.1724057 0.034868576 -0.67799997 0.17657055 -0.60096842 0.77952534 0.013586443
-0.1698229 0.034868576 -0.67799997 0.14630458 -0.60513282 0.78256583 0.014334349
-0.17530763 0.036991909 -0.67550004 0.22335996 -0.58690482 0.77823722 0.015833642
-0.17245983 0.037277337 -0.67720002 0.19638087 -0.59705359 0.77779263 0.01451303
-0.16991811 0.037591748 -0.67666674 0.19197939 -0.59740645 0.77862024 0.015070922
-0.1724057 0.040034287 -0.67799997 0.20537142 -0.59408635 0.77774292 0.01618184
-0.2676743 -0.05199429 -0.67400002 -0.11706461 -0.53027266 0.83970642 0.0052895932
-0.26574862 -0.050068576 -0.67400002 -0.11704456 -0.52569014 0.84258556 0.0060185976
-0.25868759 -0.048142862 -0.67400002 -0.055825263 -0.52981657 0.84627301 0.0070572458
-0.25676191 -0.048784766 -0.67400002 -0.033581968 -0.5365203 0.84321892 0.0071523734
-0.25355244 -0.049426671 -0.67400008 -0.0064142593 -0.53980154 0.84176791 0.0074286535
-0.25034285 -0.050068576 -0.67400002 0.011582762 -0.5415349 0.84059846 0.0071464912
-0.24798924 -0.049854606 -0.67400002 0.027448639 -0.54115713 0.84047341 0.0071037528
-0.24456571 -0.049426671 -0.67400002 0.049458142 -0.54140872 0.83930361 0.0061561936
-0.24135619 -0.048142862 -0.67400002 0.067529939 -0.54233593 0.83744341 0.0059443042
-0.2387886 -0.048142862 -0.67400002 0.082490407 -0.54355145 0.83531266 0.0059944377
-0.23557904 -0.048142862 -0.67400002 0.10757575 -0.5442968 0.83196664 0.0071043656
-0.26510671 -0.045575239 -0.67400002 -0.11665613 -0.51854086 0.84705764 0.0062147002
-0.26227814 -0.045530163 -0.67333341 -0.099702284 -0.52402002 0.84585017 0.0067456332
-0.25911555 -0.046003174 -0.67400002 -0.062614769 -0.52938122 0.84607029 0.0081369383
-0.25604129 -0.047193017 -0.67266679 -0.034932435 -0.53195673 0.84605074 0.0079878643
-0.25343999 -0.046080001 -0.67200011 -0.022415403 -0.53728777 0.84310108 0.0081525045
-0.25109336 -0.047573339 -0.67200011 0.0023443871 -0.5405091 0.84133488 0.007134764
-0.24767999 -0.047359999 -0.67200011 0.028009245 -0.54231435 0.83970869 0.0066044042
-0.24448 -0.047360003 -0.67200011 0.045593269 -0.54294211 0.83853149 0.006361071
-0.24170667 -0.046293333 -0.67200011 0.065714352 -0.54395777 0.83653539 0.0054692058
-0.23872 -0.046080001 -0.67200011 0.083395258 -0.54439688 0.83467197 0.005561512
-0.23541485 -0.04626362 -0.67280006 0.11196991 -0.54355556 0.83187145 0.0064485949
-0.23283759 -0.045862384 -0.67350006 0.14270493 -0.53683686 0.83152968 0.0058819484
-0.23044381 -0.045575239 -0.67400002 0.16799036 -0.53312558 0.82919025 0.0055303266
-0.26510671 -0.043649524 -0.67400002 -0.12789609 -0.5180313 0.8457458 0.0070906784
-0.26214832 -0.043585084 -0.6730001 -0.10144306 -0.51942611 0.84847265 0.0072395708
-0.25928634 -0.043820955 -0.67333341 -0.078255795 -0.52565116 0.84709322 0.0080795418
-0.25792 -0.042879999 -0.67200011 -0.066460587 -0.52808022 0.8465898 0.0084658097
-0.25343999 -0.044160001 -0.67200011 -0.027061148 -0.53667176 0.84335703 0.0081739239
-0.23744 -0.044160001 -0.67200011 0.093471818 -0.54504907 0.83317739 0.0058927615
-0.23530667 -0.043733336 -0.67200011 0.11739732 -0.54143322 0.83250701 0.0061504119
-0.23220153 -0.043674286 -0.67240018 0.15181202 -0.53408134 0.83169121 0.005747736
-0.23001587 -0.043435555 -0.67400002 0.17779285 -0.52866197 0.83000374 0.0047465288
-0.2278762 -0.04300762 -0.67400002 0.20273793 -0.52551174 0.82627767 0.0044142511
-0.22316894 -0.043435555 -0.67400002 0.24296151 -0.52216858 0.81750214 0.0034851122
-0.2201733 -0.04300762 -0.67400002 0.26667866 -0.51962268 0.81171101 0.0035672882
-0.23104 -0.040959999 -0.67200011 0.17011501 -0.52950144 0.8310771 0.0052187652
-0.22928999 -0.040990952 -0.67250013 0.1912763 -0.52628684 0.8285141 0.0036820031
-0.22644258 -0.040414181 -0.67355561 0.21656144 -0.52486038 0.82317841 0.0034055221
-0.22305113 -0.040381271 -0.6730001 0.24711683 -0.51896417 0.81829667 0.0026444076
-0.22070572 -0.040420637 -0.67366672 0.2648285 -0.51830316 0.81315911 0.0035123613
-0.21786247 -0.039669719 -0.67400002 0.28763315 -0.51178509 0.8095327 0.0034215294
-0.21503811 -0.039156191 -0.67400002 0.3151612 -0.50794947 0.80166125 0.0050403276
-0.21952 -0.037760001 -0.67200011 0.27380598 -0.512914 0.81360275 0.0028142908
-0.21734439 -0.037270483 -0.67240018 0.29446739 -0.50892699 0.80887717 0.0033979586
-0.21452534 -0.037058674 -0.67320007 0.32137433 -0.50304806 0.80228502 0.0046733408
-0.21182862 -0.03723048 -0.67400002 0.3470898 -0.49589604 0.79599983 0.0044993465
-0.20887581 -0.0371021 -0.67400002 0.37075844 -0.49195129 0.78773224 0.0058891196
-0.20605139 -0.036588579 -0.67400002 0.3935034 -0.48602968 0.78033972 0.0059606163
-0.21407999 -0.034880001 -0.67200011 0.32598504 -0.50437576 0.79958677 0.0043013794
-0.2112 -0.034560002 -0.67200011 0.35258159 -0.50000232 0.79100186 0.0044838265
-0.20851523 -0.034646031 -0.67366672 0.37844783 -0.49018633 0.78517169 0.0053697997
-0.20562348 -0.034448888 -0.67400002 0.40468833 -0.48390228 0.77592915 0.00615256
-0.2112 -0.032639999 -0.67200011 0.35245159 -0.49903873 0.79166812 0.0045090681
-0.20842668 -0.03221333 -0.67200011 0.37952963 -0.49278656 0.78301889 0.0047300481
-0.20557544 -0.031381588 -0.67244446 0.4146727 -0.47651929 0.77522635 0.0071002804
-0.20284954 -0.031178666 -0.67360008 0.44891161 -0.4589158 0.76672977 0.0085640522
-0.20048827 -0.03059746 -0.67400002 0.47455356 -0.44351411 0.76032507 0.0096158674
-0.20480001 -0.0288 -0.67200011 0.44007182 -0.45800352 0.7723791 0.0098929917
-0.20239 -0.02818143 -0.67250007 0.47180948 -0.43559963 0.76658261 0.013864657
-0.19988917 -0.028115435 -0.67400002 0.50241584 -0.41703749 0.75740212 0.014923727
-0.2016 -0.025600001 -0.67200011 0.50732166 -0.39396143 0.76643276 0.021029882
-0.19943431 -0.025651433 -0.67333335 0.53143764 -0.37870318 0.75773209 0.022300579
-0.1970648 -0.025676195 -0.67400002 0.55322099 -0.36273202 0.74991465 0.021981752
-0.19904 -0.02368 -0.67200011 0.54742163 -0.34662136 0.76169759 0.026636932
-0.1963633 -0.022611432 -0.67285734 0.58477724 -0.31303495 0.74836135 0.028441042
-0.19449709 -0.021824766 -0.67400002 0.61515558 -0.28309104 0.73582816 0.031518027
-0.1952 -0.01984 -0.67200011 0.62475199 -0.25221497 0.73896724 0.033978935
-0.19371092 -0.019243333 -0.67350006 0.64461458 -0.2229179 0.73128635 0.036412612
-0.19356665 -0.016664762 -0.6730001 0.66522646 -0.16335882 0.72855175 0.040480155
-0.1919295 -0.016047619 -0.67400002 0.68323392 -0.13599235 0.71742421 0.042274918
-0.19328001 -0.01472 -0.67200011 0.68506181 -0.11818407 0.71883434 0.041891441
-0.19109778 -0.013467303 -0.67333341 0.70424819 -0.060826894 0.70734334 0.043730646
-0.19036284 -0.01025619 -0.6730001 0.72044748 0.011173203 0.69341946 0.042474106
-0.19164476 -0.0076904772 -0.6730001 0.72806072 0.076423079 0.68123937 0.048003338
-0.1999781 0.0051266672 -0.6730001 0.74448532 0.1757254 0.64409804 0.049141485
-0.18422671 0.03273714 -0.67400002 0.33812076 -0.5646643 0.75288016 0.025695456
-0.18368 0.034560002 -0.67200011 0.33564171 -0.56341678 0.75492126 0.020386752
-0.18147872 0.034627933 -0.67333341 0.26714939 -0.58291048 0.76736337 0.017623484
-0.17851581 0.037035435 -0.67280012 0.25410634 -0.58524764 0.77000988 0.016747179
-0.17535999 0.037760001 -0.67200011 0.23888589 -0.59035021 0.7709865 0.017957116
-0.17535999 0.039039999 -0.67200011 0.26337191 -0.58041435 0.7705546 0.019380275
-0.17343999 0.039039999 -0.67200011 0.25400943 -0.57977068 0.77417386 0.01988687
-0.2562581 -0.045372382 -0.671 -0.048623245 -0.52996427 0.84662491 0.0078363232
-0.25498 -0.045372382 -0.671 -0.036710765 -0.53422278 0.84454614 0.0082849953
-0.25029364 -0.045798417 -0.671 0.00087377394 -0.54196858 0.84039825 0.0073744664
-0.2473114 -0.045372382 -0.671 0.025515584 -0.54339856 0.83908695 0.0067546871
-0.2441162 -0.045372382 -0.671 0.050048001 -0.54409009 0.83753276 0.0061959336
-0.242199 -0.045372382 -0.671 0.05942861 -0.54281509 0.83774704 0.0060649179
-0.2562581 -0.043455239 -0.671 -0.058424067 -0.53099495 0.84535843 0.008403495
-0.25402141 -0.043135714 -0.671 -0.032725465 -0.53479147 0.84435004 0.0080872774
-0.25022689 -0.043406907 -0.67025 -0.0040294165 -0.53706259 0.84353274 0.0071854051
-0.2474888 -0.04337452 -0.66975003 0.022704009 -0.54042274 0.84108728 0.0065994933
-0.2445724 -0.043505333 -0.66980004 0.043360833 -0.54417557 0.83785003 0.0063067186
-0.24150987 -0.043250479 -0.66979998 0.062559292 -0.54471964 0.83628154 0.0063230474
-0.23854898 -0.043314669 -0.67080003 0.084568731 -0.5437957 0.83494574 0.0057748444
-0.2358086 -0.042816188 -0.671 0.11681435 -0.53815591 0.83471113 0.0060227443
-0.23325241 -0.042816188 -0.671 0.14245735 -0.53394306 0.83343309 0.0054503628
-0.26289526 -0.040838093 -0.67000002 -0.11938118 -0.52466124 0.84289902 0.0059572868
-0.25983366 -0.040858731 -0.67033339 -0.092180327 -0.52652001 0.84515059 0.0063588792
-0.25661024 -0.040853571 -0.67025006 -0.066341333 -0.52965033 0.84561777 0.0076327655
-0.25342742 -0.040941715 -0.66960001 -0.038956698 -0.53207874 0.84579819 0.0087761022
-0.25039718 -0.040777147 -0.66900003 -0.012056831 -0.53736472 0.84326369 0.0075013335
-0.24721146 -0.041414291 -0.66900003 0.017054144 -0.53795481 0.84280115 0.0066565648
-0.24466285 -0.041414291 -0.66900003 0.037208118 -0.54042965 0.8405661 0.0060460386
-0.24124832 -0.041111194 -0.66925001 0.063915968 -0.54369843 0.83684331 0.0063758548
-0.23826399 -0.040966097 -0.67000002 0.091401428 -0.54217118 0.83528215 0.006547322
-0.2353421 -0.040735241 -0.67040008 0.12346813 -0.53736401 0.8342635 0.0054297009
-0.23261335 -0.040899049 -0.671 0.15658242 -0.53255188 0.83178753 0.00543985
-0.26441431 -0.036954291 -0.66900003 -0.13460508 -0.53168714 0.83617598 0.0059816288
-0.26263365 -0.037610799 -0.6693334 -0.12244772 -0.53187835 0.83792114 0.0055155274
-0.25955483 -0.037963815 -0.66914296 -0.098026745 -0.53179866 0.8411783 0.0057451073
-0.25634384 -0.038440958 -0.66900003 -0.066869482 -0.53221095 0.84396684 0.0069252951
-0.25422001 -0.038865719 -0.66900003 -0.048705105 -0.53178638 0.84547687 0.0084969085
-0.2376543 -0.038865719 -0.66900003 0.099717967 -0.54008543 0.83568174 0.0066420445
-0.23574284 -0.038865719 -0.66900003 0.12240034 -0.53767997 0.83421719 0.0055697453
-0.2323415 -0.037798099 -0.66942865 0.15986565 -0.53703153 0.82827544 0.0051456932
-0.22948915 -0.037838776 -0.67014289 0.18671411 -0.53173918 0.82606977 0.0045413389
-0.22669223 -0.037037306 -0.67050004 0.21527913 -0.52739084 0.82189649 0.0041784295
-0.22366665 -0.037064765 -0.671 0.24316308 -0.51916653 0.81935209 0.0029343585
-0.22066131 -0.036926102 -0.67080003 0.26714313 -0.51209205 0.81633091 0.0024242187
-0.22937146 -0.03504286 -0.66900003 0.19307272 -0.53446597 0.82284206 0.0045222817
-0.22657542 -0.034554094 -0.66940004 0.22298792 -0.52858937 0.81906629 0.0033952405
-0.22351561 -0.034299236 -0.66940004 0.24977376 -0.52404147 0.81424427 0.0029213768
-0.22061622 -0.034431905 -0.66949999 0.2701745 -0.51899606 0.81095552 0.0025896779
-0.21775222 -0.034483019 -0.67050004 0.29140362 -0.51340008 0.80715817 0.0031122048
-0.21472001 -0.03386952 -0.671 0.31926587 -0.50574052 0.80143362 0.0029507945
-0.22618569 -0.032494292 -0.66900003 0.22803707 -0.53215319 0.81536013 0.0038535476
-0.22363716 -0.032494292 -0.66900003 0.25334343 -0.52560109 0.81213331 0.0032277636
-0.22045144 -0.032494292 -0.66900003 0.27387911 -0.51883584 0.80981457 0.0028136186
-0.21737334 -0.032510482 -0.6693334 0.29855195 -0.51190978 0.80549049 0.003017803
-0.2145903 -0.031749144 -0.66940004 0.32231322 -0.50745535 0.79912663 0.0036757868
-0.21176502 -0.031621192 -0.67075002 0.34745735 -0.50262451 0.79160732 0.0040539387
-0.20832956 -0.030674286 -0.671 0.38333726 -0.48856851 0.78380704 0.0050826357
-0.21408001 -0.029945711 -0.66900003 0.32746044 -0.50399113 0.79922622 0.0033778213
-0.211584 -0.02867889 -0.66916674 0.35511732 -0.49497014 0.79302979 0.0037960166
-0.20881617 -0.028555002 -0.67000002 0.39183652 -0.48083729 0.78438491 0.006587808
-0.20598638 -0.027905082 -0.671 0.43028337 -0.4590936 0.77723187 0.010255598
-0.2038562 -0.027479051 -0.671 0.45942733 -0.43975955 0.77171111 0.01283809
-0.21131907 -0.025698096 -0.66900003 0.3776435 -0.47353223 0.79570884 0.0061121183
-0.2085527 -0.025511116 -0.66966671 0.42066684 -0.45043758 0.78749305 0.013923365
-0.20554313 -0.025533576 -0.67025 0.45839536 -0.43016484 0.77770931 0.0176307
-0.20321715 -0.025561906 -0.671 0.48589179 -0.41065961 0.77153611 0.019485751
-0.20770854 -0.022300003 -0.66900009 0.46409833 -0.40738657 0.78654236 0.023551438
-0.20516005 -0.022300003 -0.66900009 0.49523348 -0.38133797 0.7805928 0.02632655
-0.20271209 -0.02231143 -0.6693334 0.51686668 -0.36550584 0.7741152 0.026735727
-0.19995737 -0.022182619 -0.67025006 0.54828978 -0.34044495 0.7638557 0.028357847
-0.1974657 -0.021727622 -0.671 0.57636535 -0.31849843 0.75257009 0.028494654
-0.20239906 -0.019326668 -0.66900003 0.54947603 -0.31112388 0.7754212 0.033447728
-0.19947505 -0.019119207 -0.66916674 0.57629418 -0.29187155 0.7633453 0.03337023
-0.1966064 -0.019150238 -0.67025006 0.60676628 -0.25898588 0.75150585 0.034258388
-0.1949095 -0.01853238 -0.671 0.63596958 -0.22598569 0.73788434 0.035272613
-0.19857618 -0.016778097 -0.66900003 0.61354399 -0.22760043 0.75614929 0.039975025
-0.19638619 -0.016578095 -0.66949999 0.63296562 -0.20339292 0.74698454 0.038886998
-0.19476426 -0.01660238 -0.67050004 0.65246832 -0.18363415 0.73523027 0.038659301
-0.19815139 -0.01465429 -0.66900003 0.63906705 -0.17926899 0.7479679 0.043695506
-0.19617108 -0.013639239 -0.66920006 0.66869026 -0.12933242 0.73220652 0.043993823
-0.19360706 -0.013040815 -0.67028582 0.68629825 -0.091184922 0.72158158 0.043448657
-0.19560289 -0.01083143 -0.66900003 0.69098216 -0.067022234 0.71975809 0.044791371
-0.19312599 -0.010516905 -0.66925001 0.70915073 -0.032961559 0.70428592 0.043888755
-0.19112036 -0.0099920649 -0.66966671 0.7234571 -0.0092244595 0.69030774 0.044119898
-0.19314989 -0.0076495241 -0.6693334 0.73042369 0.047973834 0.68130744 0.045973614
-0.19356404 -0.0042051431 -0.66900009 0.74034375 0.13159722 0.65922171 0.045118246
-0.19178 -0.0057342858 -0.66900003 0.73714793 0.096707009 0.66877544 0.042908702
-0.2019743 0.0050971429 -0.66900003 0.77525187 0.17705791 0.60632914 0.04417761
-0.20067398 0.005320318 -0.67033339 0.76155537 0.17711765 0.62342823 0.046312518
-0.20006284 0.0082828579 -0.66900003 0.77210432 0.13076647 0.62189633 0.055133138
-0.20452289 0.0095571438 -0.66900003 0.79694569 0.16710646 0.58047646 0.047971115
-0.20234917 0.010072573 -0.66940004 0.78830731 0.096631564 0.60764617 0.054578543
-0.20452289 0.01210571 -0.66900003 0.80558014 0.075089 0.58770937 0.058322422
-0.20324861 0.01210571 -0.66900003 0.79954779 0.057410825 0.59785229 0.060714889
-0.2083457 0.01592857 -0.66900003 0.82772452 0.029909864 0.56033701 0.059546798
-0.20770854 0.01975143 -0.66900003 0.80980867 -0.095357463 0.57889277 0.069402233
-0.1872409 0.032591429 -0.671 0.42524546 -0.55278927 0.71665215 0.029626476
-0.1859629 0.032591429 -0.671 0.41216227 -0.54701936 0.72862339 0.027414467
-0.1872409 0.034508571 -0.671 0.41109201 -0.55988568 0.71939659 0.025513899
-0.18518573 0.034482382 -0.67050004 0.39700577 -0.55571121 0.73045981 0.022508536
-0.18753242 0.036741912 -0.66900003 0.44698885 -0.54430151 0.70988512 0.019396219
-0.18427143 0.036662858 -0.66950005 0.38971102 -0.5688234 0.72426873 0.021988632
-0.18137594 0.037622727 -0.66957152 0.33274543 -0.57850242 0.74472511 0.021800131
-0.17848003 0.038633332 -0.67050004 0.29659936 -0.58055598 0.75827676 0.020939643
-0.1815857 0.040139999 -0.66900003 0.39209232 -0.55562139 0.73317707 0.022274001
-0.17846647 0.040792145 -0.66925001 0.35048714 -0.56182712 0.74933916 0.02286189
-0.17623906 0.040604763 -0.66966671 0.29079482 -0.57635546 0.7637099 0.020648036
-0.17394 0.040777147 -0.66900003 0.29521716 -0.5716365 0.76555771 0.02136882
-0.24774285 -0.04002 -0.66700011 0.0074039283 -0.53723848 0.84339786 0.0082188733
-0.24432161 -0.039980002 -0.66633344 0.03986048 -0.54120421 0.83994591 0.0070887771
-0.24139045 -0.04002 -0.66700011 0.062982187 -0.54159921 0.83827412 0.0065498659
-0.26552957 -0.036208581 -0.66700011 -0.14776334 -0.52991217 0.83508027 0.0061488212
-0.25854191 -0.036208581 -0.66700011 -0.088958755 -0.53709757 0.83881611 0.0061281552
-0.2566362 -0.036208581 -0.66700011 -0.077439979 -0.53906649 0.83869565 0.00614483
-0.25356174 -0.037203241 -0.66660011 -0.047537792 -0.53944141 0.84068006 0.0077156113
-0.25043926 -0.037953522 -0.66640007 -0.022424811 -0.53814822 0.84255189 0.0087795621
-0.24758288 -0.038268574 -0.66600001 0.0067349705 -0.53781664 0.84303492 0.0087890066
-0.2448343 -0.038691431 -0.66600001 0.031316523 -0.54061669 0.84068596 0.0080281943
-0.24134572 -0.038374286 -0.66600001 0.06105518 -0.54372776 0.83703786 0.0072946963
-0.2385807 -0.038071666 -0.66625005 0.087490141 -0.54521203 0.83372015 0.0067244242
-0.2354967 -0.036816671 -0.66650009 0.12510738 -0.54168224 0.8312211 0.0060828263
-0.23295766 -0.036816671 -0.66650009 0.1552453 -0.53773838 0.82869554 0.004623611
-0.26743531 -0.03430286 -0.66700011 -0.16781393 -0.52576238 0.83391386 0.0055378089
-0.26552957 -0.03430286 -0.66700011 -0.15141797 -0.52995068 0.83440083 0.0057720779
-0.26228747 -0.034294449 -0.6668334 -0.12476392 -0.53554082 0.83524251 0.0058454098
-0.25908029 -0.034290239 -0.66675007 -0.090239987 -0.53851455 0.83777016 0.0063941693
-0.25625139 -0.034885719 -0.66600001 -0.069755755 -0.54029393 0.83858007 0.0065331217
-0.2346857 -0.034885719 -0.66600001 0.1324075 -0.54217476 0.82976788 0.0054389033
-0.23205304 -0.034480318 -0.66633344 0.16510871 -0.53851926 0.82627845 0.0043914593
-0.22946617 -0.03396 -0.66650009 0.19151774 -0.53617489 0.82209331 0.0040439968
-0.2676686 -0.031714283 -0.66600001 -0.16564445 -0.52909344 0.83223915 0.0067094704
-0.26513144 -0.031714283 -0.66600001 -0.14858726 -0.53461665 0.83192968 0.0063364701
-0.26259428 -0.031714287 -0.66600001 -0.12445395 -0.5366298 0.83458954 0.0061864816
-0.26005715 -0.031714283 -0.66600001 -0.10373423 -0.53927839 0.8357141 0.006109376
-0.22660951 -0.031738095 -0.66650009 0.22446188 -0.53249729 0.81612706 0.0037721738
-0.2233921 -0.031550162 -0.66700017 0.25397855 -0.52750546 0.81069899 0.0032401653
-0.22042763 -0.031126671 -0.66700017 0.27762315 -0.52034044 0.80757117 0.0031610127
-0.21725145 -0.031126671 -0.66700011 0.30146691 -0.51133537 0.80476946 0.0031528585
-0.2676686 -0.029811431 -0.66600001 -0.16716231 -0.53226519 0.82990986 0.006618605
-0.26513144 -0.029811431 -0.66600001 -0.1474825 -0.53609741 0.83117294 0.0064866878
-0.26259428 -0.029811431 -0.66600001 -0.12512612 -0.53904045 0.8329339 0.007035933
-0.2258057 -0.029177144 -0.66600001 0.23654905 -0.52962339 0.81458187 0.0039510741
-0.22352993 -0.028814098 -0.66640007 0.25730792 -0.52542949 0.81099719 0.0034744444
-0.22047381 -0.028988097 -0.66650009 0.2798931 -0.51927489 0.80747354 0.0033425018
-0.21748285 -0.028395481 -0.66624999 0.30495638 -0.5106501 0.80388939 0.0036849645
-0.21477298 -0.028323432 -0.66680008 0.32315809 -0.50475121 0.80049682 0.0031503849
-0.21280479 -0.027950481 -0.66700011 0.34298241 -0.49514055 0.7982474 0.0038641999
-0.21417718 -0.025582854 -0.66600001 0.34156394 -0.48910356 0.80256575 0.0041383971
-0.2123813 -0.02519778 -0.66700017 0.36365676 -0.47942352 0.79869074 0.0059076753
-0.21108949 -0.022974856 -0.66640007 0.39987317 -0.45016807 0.79840475 0.013459452
-0.20899341 -0.02286857 -0.66700011 0.43176776 -0.43132159 0.79217309 0.018829258
-0.2102638 -0.02096286 -0.66700011 0.43730727 -0.41716909 0.79670095 0.021290407
-0.20885856 -0.019317282 -0.6665715 0.48337975 -0.37304533 0.79194766 0.02836634
-0.20581713 -0.019057145 -0.66700011 0.52104497 -0.340473 0.78268141 0.032646503
-0.20348799 -0.018845402 -0.66700017 0.53880507 -0.32398763 0.77763814 0.033136565
-0.2055086 -0.017125711 -0.66600001 0.5331983 -0.31410632 0.78551686 0.035553534
-0.20248841 -0.016503967 -0.66650009 0.56957388 -0.27108374 0.77595049 0.039344113
-0.19967651 -0.016304445 -0.66700017 0.59684014 -0.24429232 0.76426643 0.039385941
-0.20149145 -0.014165713 -0.66600001 0.60761923 -0.21665594 0.76410669 0.044628821
-0.19921808 -0.013586478 -0.66660011 0.63018829 -0.17866731 0.75560629 0.043759342
-0.19713561 -0.01249302 -0.66700017 0.66050923 -0.13952623 0.73773986 0.043735046
-0.19606741 -0.010152144 -0.66625005 0.6932435 -0.065212339 0.71774703 0.045441087
-0.19374759 -0.0095285727 -0.66700011 0.70292032 -0.040463042 0.71011668 0.043104343
-0.19534349 -0.0078304773 -0.66666675 0.71049958 -0.0033828521 0.70368952 0.045639139
-0.1950181 -0.0044466672 -0.66700011 0.73628867 0.092634737 0.67029685 0.045930617
-0.19423665 -0.0057128575 -0.66650009 0.73104453 0.06020198 0.67966878 0.04547276
-0.19684003 -0.0010571429 -0.66600001 0.75406098 0.14512131 0.64057148 0.045391507
-0.2018548 0.0044442862 -0.66650009 0.78069365 0.17965189 0.59853375 0.048517618
-0.1991657 0.003171429 -0.66600001 0.77058601 0.18400142 0.61019731 0.044820819
-0.1972629 0.003171429 -0.66600001 0.7600227 0.1801862 0.6244185 0.042785164
-0.20214379 0.0077403816 -0.6662001 0.78906626 0.17703325 0.58824623 0.047119804
-0.2001 0.0069876201 -0.66700011 0.77985221 0.15713605 0.60591978 0.04788002
-0.20539972 0.010364765 -0.66633344 0.8136338 0.14899102 0.56196243 0.04599056
-0.2039115 0.01079905 -0.66700011 0.80153984 0.10485427 0.58867604 0.051936597
-0.20844072 0.014276905 -0.66625005 0.82847077 0.085121982 0.55352545 0.048157744
-0.20581715 0.013340003 -0.66700017 0.81341916 0.040879518 0.58023971 0.056216385
-0.2039115 0.01397524 -0.66700011 0.80448776 0.009125757 0.59389913 0.060807716
-0.2102638 0.01588095 -0.66700011 0.83951044 0.069292471 0.53890705 0.049783137
-0.20856991 0.016727937 -0.66700017 0.83048105 0.013912515 0.55687314 0.056963693
-0.20581715 0.01651619 -0.66700011 0.8129186 -0.022846112 0.58192909 0.062065184
-0.2039115 0.01651619 -0.66700011 0.79541343 -0.058893774 0.60319895 0.067602105
-0.2102638 0.019057145 -0.66700011 0.83231544 -0.03012603 0.55348289 0.05893968
-0.20848523 0.019692384 -0.66700011 0.80930436 -0.076430038 0.58239579 0.062365331
-0.20581715 0.018421911 -0.66700011 0.79936445 -0.096367657 0.59306812 0.067967951
-0.20835815 0.02223333 -0.66700011 0.79025441 -0.15493767 0.59286791 0.064404339
-0.19238099 0.03745969 -0.66666675 0.48080289 -0.5356741 0.69417703 0.016790926
-0.19111113 0.03745969 -0.66666675 0.48326918 -0.5319857 0.69529992 0.016434034
-0.18728212 0.03821848 -0.66660005 0.45776698 -0.54311967 0.70389658 0.018221965
