# .PCD v0.7 - Point Cloud Data file format
VERSION 0.7
FIELDS x y z normal_x normal_y normal_z curvature
SIZE 4 4 4 4 4 4 4
TYPE F F F F F F F
COUNT 1 1 1 1 1 1 1
WIDTH 912
HEIGHT 1
VIEWPOINT 0 0 0 1 0 0 0
POINTS 912
DATA ascii
-0.2372229 0.05070857 -0.61199999 0 0 0 0.01515043
-0.23644289 0.050791431 -0.61299998 0 0 0 0.015851744
-0.2352753 0.050791431 -0.61299998 0 0 0 0.015851744
-0.2341076 0.050791431 -0.61299998 0 0 0 0.015851744
-0.23332 0.050874289 -0.61400002 0 0 0 0.010851942
-0.2325286 0.05095714 -0.61500001 0 0 0 0.010939464
-0.2313571 0.05095714 -0.61500001 0 0 0 0.012813747
-0.23056 0.051040001 -0.61600012 0 0 0 0.015124169
-0.2297591 0.051122859 -0.61699998 0 0 0 0.015124169
-0.2285838 0.051122859 -0.61699998 0 0 0 0.015345627
-0.2277772 0.051205721 -0.61799997 0 0 0 0.015851744
-0.22660001 0.051205721 -0.61799997 0 0 0 0.015851744
-0.22505809 0.051122859 -0.61699998 0 0 0 0.015851744
-0.2242457 0.051205721 -0.61799997 0 0 0 0.016439987
-0.22306859 0.051205721 -0.61799997 0 0 0 0.011421103
-0.2218914 0.051205721 -0.61799997 0 0 0 0.011403551
-0.2221429 0.051537141 -0.62199998 0 0 0 0.011403551
-0.2209581 0.051537141 -0.62199998 0 0 0 0.01477917
-0.21977331 0.051537141 -0.62199998 0 0 0 0.01477917
-0.21894 0.051619999 -0.62300003 0 0 0 0.015262161
-0.21775331 0.051619999 -0.62300003 0 0 0 0.016439987
-0.2169143 0.051702861 -0.62400001 0 0 0 0.016439987
-0.2160714 0.051785711 -0.625 0 0 0 0.017025258
-0.2148809 0.051785711 -0.625 0 0 0 0.010602627
-0.2140324 0.05186858 -0.62599999 0 0 0 0.013754631
-0.21284001 0.05186858 -0.62599999 0 0 0 0.013754631
-0.21130949 0.051785711 -0.625 0 0 0 0.015234441
-0.2104553 0.05186858 -0.62599999 0 0 0 0.016319523
-0.2095972 0.051951431 -0.62699997 0 0 0 0.017025258
-0.2087352 0.052034281 -0.62800002 0 0 0 0.017025258
-0.2078695 0.052117139 -0.62900001 0 0 0 0.018483607
-0.2066714 0.052117139 -0.62900001 0 0 0 0.012502991
-0.2084133 0.05286286 -0.63800001 0 0 0 0.015571028
-0.205899 0.052531429 -0.634 0 0 0 0.015571028
-0.2046914 0.052531429 -0.634 0 0 0 0.016297761
-0.2041257 0.052697148 -0.63599998 0 0 0 0.017395074
-0.2035524 0.05286286 -0.63800001 0 0 0 0.018216623
-0.2026543 0.052945718 -0.63900012 0 0 0 0.018216623
-0.20143721 0.052945718 -0.63900012 0 0 0 0.018483607
-0.20022 0.052945718 -0.63900012 0 0 0 0.010941305
-0.19900291 0.052945718 -0.63900012 0 0 0 0.014385941
-0.1980952 0.05302858 -0.63999999 0 0 0 0.015805613
-0.1971838 0.05311143 -0.64099997 0 0 0 0.01732072
-0.1962686 0.053194281 -0.64200002 0 0 0 0.018237606
-0.1956533 0.05336 -0.64400011 0 0 0 0.018813269
-0.1947286 0.053442858 -0.64499998 0 0 0 0.018813269
-0.1944 0.053691428 -0.648 0 0 0 0.020307925
-0.1931657 0.053691428 -0.648 0 0 0 0.020307925
-0.19252381 0.05385714 -0.64999998 0 0 0 0.012641269
-0.1912857 0.05385714 -0.64999998 0 0 0 0.014730105
-0.19092479 0.054105721 -0.65300012 0 0 0 0.018138511
-0.18968099 0.054105721 -0.65300012 0 0 0 0.018138511
-0.18959139 0.054437138 -0.65700001 0 0 0 0.019182436
-0.18862671 0.05452 -0.65800011 0 0 0 0.019715382
-0.18794291 0.054685719 -0.66000003 0 0 0 0.019534459
-0.1866857 0.054685719 -0.66000003 0 0 0 0.019951444
-0.1854286 0.054685719 -0.66000003 0 0 0 0.020232087
-0.18417139 0.054685719 -0.66000003 0 0 0 0.012641269
-0.1829143 0.054685719 -0.66000003 0 0 0 0.014622596
-0.1816572 0.054685719 -0.66000003 0 0 0 0.017963976
-0.26351711 0.050109521 -0.61900002 0 0 0 0.017963976
-0.26149049 0.049947619 -0.61699998 0 0 0 0.019006481
-0.25947139 0.049785711 -0.61500001 0 0 0 0.018491151
-0.25830001 0.049785711 -0.61500001 0 0 0 0.017740186
-0.2571286 0.049785711 -0.61500001 0 0 0 0.017740186
-0.255541 0.04970476 -0.61400002 0 0 0 0.019348634
-0.25395721 0.04962381 -0.61299998 0 0 0 0.018650189
-0.2527895 0.04962381 -0.61299998 0 0 0 0.013803902
-0.2516219 0.04962381 -0.61299998 0 0 0 0.014299707
-0.25004569 0.049542859 -0.61199999 0 0 0 0.014299707
-0.24888 0.049542859 -0.61199999 0 0 0 0.017630585
-0.2477143 0.049542859 -0.61199999 0 0 0 0.017279927
-0.2469514 0.04962381 -0.61299998 0 0 0 0.016674241
-0.2465857 0.049785711 -0.61500001 0 0 0 0.017740186
-0.24501529 0.04970476 -0.61400002 0 0 0 0.017135505
-0.2438457 0.04970476 -0.61400002 0 0 0 0.018650189
-0.242281 0.04962381 -0.61299998 0 0 0 0.018526457
-0.24111331 0.04962381 -0.61299998 0 0 0 0.014299707
-0.23994569 0.04962381 -0.61299998 0 0 0 0.014299707
-0.2387781 0.04962381 -0.61299998 0 0 0 0.014830886
-0.2376105 0.04962381 -0.61299998 0 0 0 0.014830886
-0.23644289 0.04962381 -0.61299998 0 0 0 0.015215978
-0.2352753 0.04962381 -0.61299998 0 0 0 0.016792146
-0.2341076 0.04962381 -0.61299998 0 0 0 0.017135505
-0.23332 0.04970476 -0.61400002 0 0 0 0.017563211
-0.2325286 0.049785711 -0.61500001 0 0 0 0.018526457
-0.2313571 0.049785711 -0.61500001 0 0 0 0.018526457
-0.23056 0.049866669 -0.61600012 0 0 0 0.014830886
-0.2297591 0.049947619 -0.61699998 0 0 0 0.014830886
-0.2285838 0.049947619 -0.61699998 0 0 0 0.015215978
-0.2277772 0.05002857 -0.61799997 0 0 0 0.017166059
-0.22660001 0.05002857 -0.61799997 0 0 0 0.017166059
-0.22505809 0.049947619 -0.61699998 0 0 0 0.017563211
-0.2242457 0.05002857 -0.61799997 0 0 0 0.01835289
-0.22306859 0.05002857 -0.61799997 0 0 0 0.018526457
-0.2218914 0.05002857 -0.61799997 0 0 0 0.020027457
-0.2207143 0.05002857 -0.61799997 0 0 0 0.014830886
-0.2198924 0.050109521 -0.61900002 0 0 0 0.019688789
-0.2201267 0.05043333 -0.62300003 0 0 0 0.018245557
-0.21894 0.05043333 -0.62300003 0 0 0 0.018245557
-0.2181029 0.050514281 -0.62400001 0 0 0 0.018807495
-0.2169143 0.050514281 -0.62400001 0 0 0 0.018807495
-0.2160714 0.050595239 -0.625 0 0 0 0.019399259
-0.2148809 0.050595239 -0.625 0 0 0 0.020027457
-0.2140324 0.050676189 -0.62599999 0 0 0 0.027468663
-0.21284001 0.050676189 -0.62599999 0 0 0 0.027468663
-0.21130949 0.050595239 -0.625 0 0 0 0.027468663
-0.2104553 0.050676189 -0.62599999 0 0 0 0.019688789
-0.2095972 0.05075714 -0.62699997 0 0 0 0.019688789
-0.2087352 0.05083809 -0.62800002 0 0 0 0.020232739
-0.2078695 0.050919048 -0.62900001 0 0 0 0.020232739
-0.2066714 0.050919048 -0.62900001 0 0 0 0.020756679
-0.2084133 0.051647618 -0.63800001 0 0 0 0.020027457
-0.2071981 0.051647618 -0.63800001 0 0 0 0.027468663
-0.2059828 0.051647618 -0.63800001 0 0 0 0.027468663
-0.2047676 0.051647618 -0.63800001 0 0 0 0.027468663
-0.2038714 0.05172858 -0.63900012 0 0 0 0.025596365
-0.2026543 0.05172858 -0.63900012 0 0 0 0.02321334
-0.20175239 0.051809531 -0.63999999 0 0 0 0.021873029
-0.20022 0.05172858 -0.63900012 0 0 0 0.022717919
-0.1993143 0.051809531 -0.63999999 0 0 0 0.021786317
-0.1980952 0.051809531 -0.63999999 0 0 0 0.021786317
-0.1971838 0.051890481 -0.64099997 0 0 0 0.031466674
-0.19688 0.05213334 -0.64400011 0 0 0 0.031466674
-0.1959572 0.052214291 -0.64499998 0 0 0 0.027468663
-0.19533239 0.052376188 -0.64700001 0 0 0 0.027468663
-0.19499999 0.052619051 -0.64999998 0 0 0 0.035287634
-0.1937619 0.052619051 -0.64999998 0 0 0 0.03074738
-0.19282 0.052700002 -0.65100002 0 0 0 0.024267469
-0.19158 0.052700002 -0.65100002 0 0 0 0.024267469
-0.1906324 0.052780949 -0.65200001 0 0 0 0.022717919
-0.18968099 0.05286191 -0.65300012 0 0 0 0.031466674
-0.18930291 0.053104758 -0.65600002 0 0 0 0.031466674
-0.18833999 0.05318572 -0.65700001 0 0 0 0.038262054
-0.1873734 0.053266671 -0.65800011 0 0 0 0.038262054
-0.18612 0.053266671 -0.65800011 0 0 0 0.040976193
-0.1848667 0.053266671 -0.65800011 0 0 0 0.044557035
-0.1836133 0.053266671 -0.65800011 0 0 0 0.044557035
-0.18235999 0.053266671 -0.65800011 0 0 0 0.052825492
-0.1811067 0.053266671 -0.65800011 0 0 0 0.052825492
-0.17985331 0.053266671 -0.65800011 0 0 0 0.059580255
-0.26597911 0.049167618 -0.62199998 0 0 0 0.059580255
-0.2639429 0.049009521 -0.62 0 0 0 0.031466674
-0.26191431 0.04885143 -0.61799997 0 0 0 0.031466674
-0.25989339 0.04869334 -0.61600012 0 0 0 0.031466674
-0.25872001 0.04869334 -0.61600012 0 0 0 0.038262054
-0.2571286 0.04861429 -0.61500001 0 0 0 0.040976193
-0.255541 0.048535239 -0.61400002 0 0 0 0.058953222
-0.2543714 0.048535239 -0.61400002 0 0 0 0.058953222
-0.2527895 0.048456188 -0.61299998 0 0 0 0.058953222
-0.2516219 0.048456188 -0.61299998 0 0 0 0.060808819
-0.25004569 0.048377149 -0.61199999 0 0 0 0.078980327
-0.2492867 0.048456188 -0.61299998 0 0 0 0.078980327
-0.2481191 0.048456188 -0.61299998 0 0 0 0.031466674
-0.2473543 0.048535239 -0.61400002 0 0 0 0.031466674
-0.2465857 0.04861429 -0.61500001 0 0 0 0.031466674
-0.24501529 0.048535239 -0.61400002 0 0 0 0.038262054
-0.2438457 0.048535239 -0.61400002 0 0 0 0.06828136
-0.242281 0.048456188 -0.61299998 0 0 0 0.06828136
-0.24111331 0.048456188 -0.61299998 0 0 0 0.06828136
-0.23994569 0.048456188 -0.61299998 0 0 0 0.071132831
-0.2387781 0.048456188 -0.61299998 0 0 0 0.071132831
-0.2376105 0.048456188 -0.61299998 0 0 0 0.078980327
-0.23644289 0.048456188 -0.61299998 0 0 0 0.078980327
-0.2352753 0.048456188 -0.61299998 0 0 0 0.072062701
-0.2344895 0.048535239 -0.61400002 0 0 0 0.072062701
-0.23370001 0.04861429 -0.61500001 0 0 0 0.072062701
-0.2329067 0.04869334 -0.61600012 0 0 0 0.072062701
-0.2317334 0.04869334 -0.61600012 0 0 0 0.092213184
-0.23056 0.04869334 -0.61600012 0 0 0 0.081504531
-0.2293867 0.04869334 -0.61600012 0 0 0 0.081504531
-0.2285838 0.04877238 -0.61699998 0 0 0 0.081504531
-0.2274086 0.04877238 -0.61699998 0 0 0 0.072062701
-0.2262333 0.04877238 -0.61699998 0 0 0 0.072062701
-0.22505809 0.04877238 -0.61699998 0 0 0 0.072062701
-0.2242457 0.04885143 -0.61799997 0 0 0 0.092213184
-0.2234295 0.048930481 -0.61900002 0 0 0 0.092213184
-0.2218914 0.04885143 -0.61799997 0 0 0 0.092213184
-0.2207143 0.04885143 -0.61799997 0 0 0 0.086824127
-0.2195372 0.04885143 -0.61799997 0 0 0 0.086824127
-0.21906669 0.049009521 -0.62 0 0 0 0.10118798
-0.2192914 0.049325708 -0.62400001 0 0 0 0.10118798
-0.21845239 0.049404759 -0.625 0 0 0 0.10118798
-0.2172619 0.049404759 -0.625 0 0 0 0.10118798
-0.2160714 0.049404759 -0.625 0 0 0 0.10118798
-0.2152248 0.04948381 -0.62599999 0 0 0 0.096170783
-0.2140324 0.04948381 -0.62599999 0 0 0 0.096170783
-0.21318001 0.04956286 -0.62699997 0 0 0 0.10528649
-0.2116476 0.04948381 -0.62599999 0 0 0 0.10528649
-0.21079139 0.04956286 -0.62699997 0 0 0 0.10528649
-0.2099314 0.0496419 -0.62800002 0 0 0 0.10528649
-0.2097324 0.049879052 -0.63099998 0 0 0 0.10528649
-0.20886099 0.049958091 -0.63200003 0 0 0 0.10532796
-0.2076571 0.049958091 -0.63200003 0 0 0 0.096170783
-0.20874 0.050511431 -0.63900012 0 0 0 0.11547276
-0.2075229 0.050511431 -0.63900012 0 0 0 0.11547276
-0.2063057 0.050511431 -0.63900012 0 0 0 0.11547276
-0.2050886 0.050511431 -0.63900012 0 0 0 0.11547276
-0.20419049 0.050590482 -0.63999999 0 0 0 0.11547276
-0.2029714 0.050590482 -0.63999999 0 0 0 0.11569116
-0.2020676 0.050669521 -0.64099997 0 0 0 0.096170783
-0.2005333 0.050590482 -0.63999999 0 0 0 0.12039138
-0.19993711 0.050748579 -0.64200002 0 0 0 0.12039138
-0.1993334 0.050906669 -0.64400011 0 0 0 0.12039138
-0.1984143 0.05098572 -0.64499998 0 0 0 0.11854087
-0.19749141 0.051064759 -0.64600003 0 0 0 0.11854087
-0.196261 0.051064759 -0.64600003 0 0 0 0.11854087
-0.19563431 0.051222861 -0.648 0 0 0 0.11878631
-0.19499999 0.051380951 -0.64999998 0 0 0 0.12039138
-0.1937619 0.051380951 -0.64999998 0 0 0 0.12039138
-0.19282 0.051460002 -0.65100002 0 0 0 0.12039138
-0.1918743 0.051539049 -0.65200001 0 0 0 0.12039138
-0.19092479 0.051618099 -0.65300012 0 0 0 0.12039138
-0.1902619 0.051776189 -0.65499997 0 0 0 0.047886111
-0.18930291 0.05185524 -0.65600002 0 0 0 0.047886111
-0.18833999 0.051934291 -0.65700001 0 0 0 0.047886111
-0.1873734 0.052013341 -0.65800011 0 0 0 0.047886111
-0.18612 0.052013341 -0.65800011 0 0 0 0.047886111
-0.1854286 0.052171431 -0.66000003 0 0 0 0.047886111
-0.18417139 0.052171431 -0.66000003 0 0 0 0.047886111
-0.1829143 0.052171431 -0.66000003 0 0 0 0.047886111
-0.1816572 0.052171431 -0.66000003 0 0 0 0.047886111
-0.1804 0.052171431 -0.66000003 0 0 0 0.047886111
-0.17914291 0.052171431 -0.66000003 0 0 0 0.047886111
-0.26597911 0.04798286 -0.62199998 0 0 0 0.047886111
-0.2639429 0.04782857 -0.62 0 0 0 0.047886111
-0.26191431 0.047674291 -0.61799997 0 0 0 0.047886111
-0.25989339 0.04752 -0.61600012 0 0 0 0.009299648
-0.25872001 0.04752 -0.61600012 0 0 0 0.0088650472
-0.2571286 0.047442861 -0.61500001 0 0 0 0.0088650472
-0.255541 0.04736571 -0.61400002 0 0 0 0.0088650472
-0.2543714 0.04736571 -0.61400002 0 0 0 0.008786709
-0.2532019 0.04736571 -0.61400002 0 0 0 0.0084540984
-0.2520324 0.04736571 -0.61400002 0 0 0 0.0084540984
-0.25004569 0.047211431 -0.61199999 0 0 0 0.0084540984
-0.2492867 0.047288571 -0.61299998 0 0 0 0.0089585902
-0.2485238 0.04736571 -0.61400002 0 0 0 0.0089585902
-0.2473543 0.04736571 -0.61400002 0 0 0 0.0086618494
-0.2465857 0.047442861 -0.61500001 0 0 0 0.0086618494
-0.24501529 0.04736571 -0.61400002 0 0 0 0.0086900359
-0.2438457 0.04736571 -0.61400002 0 0 0 0.0084090689
-0.2426762 0.04736571 -0.61400002 0 0 0 0.0084090689
-0.24111331 0.047288571 -0.61299998 0 0 0 0.0084090689
-0.23994569 0.047288571 -0.61299998 0 0 0 0.0087284939
-0.2387781 0.047288571 -0.61299998 0 0 0 0.0087284939
-0.2376105 0.047288571 -0.61299998 0 0 0 0.0086678192
-0.23644289 0.047288571 -0.61299998 0 0 0 0.0082110465
-0.2352753 0.047288571 -0.61299998 0 0 0 0.0080809677
-0.2348714 0.047442861 -0.61500001 0 0 0 0.0081452811
-0.23408 0.04752 -0.61600012 0 0 0 0.0076902481
-0.2332848 0.047597151 -0.61699998 0 0 0 0.0073604174
-0.2317334 0.04752 -0.61600012 0 0 0 0.0073604174
-0.23093431 0.047597151 -0.61699998 0 0 0 0.0087284939
-0.2297591 0.047597151 -0.61699998 0 0 0 0.0082070483
-0.2285838 0.047597151 -0.61699998 0 0 0 0.0082070483
-0.2274086 0.047597151 -0.61699998 0 0 0 0.0080809677
-0.2262333 0.047597151 -0.61699998 0 0 0 0.0080809677
-0.22505809 0.047597151 -0.61699998 0 0 0 0.0076902481
-0.2238829 0.047597151 -0.61699998 0 0 0 0.0073604174
-0.2234295 0.04775143 -0.61900002 0 0 0 0.0073604174
-0.22225051 0.04775143 -0.61900002 0 0 0 0.0073604174
-0.2207143 0.047674291 -0.61799997 0 0 0 0.0073604174
-0.2198924 0.04775143 -0.61900002 0 0 0 0.0082070483
-0.2208333 0.04821429 -0.625 0 0 0 0.0082070483
-0.2196428 0.04821429 -0.625 0 0 0 0.0080809677
-0.2188019 0.04829143 -0.62599999 0 0 0 0.0080809677
-0.21760949 0.04829143 -0.62599999 0 0 0 0.0076429825
-0.21641719 0.04829143 -0.62599999 0 0 0 0.0075230654
-0.2152248 0.04829143 -0.62599999 0 0 0 0.0072442186
-0.2143743 0.048368569 -0.62699997 0 0 0 0.007041492
-0.21352001 0.048445709 -0.62800002 0 0 0 0.007041492
-0.21198571 0.048368569 -0.62699997 0 0 0 0.0070912004
-0.21112759 0.048445709 -0.62800002 0 0 0 0.0080809677
-0.2102657 0.04852286 -0.62900001 0 0 0 0.0071603302
-0.2097324 0.04867715 -0.63099998 0 0 0 0.0071603302
-0.2095219 0.048908569 -0.634 0 0 0 0.0068985745
-0.2083143 0.048908569 -0.634 0 0 0 0.0069571943
-0.20874 0.049294289 -0.63900012 0 0 0 0.0069571943
-0.2081724 0.049448568 -0.64099997 0 0 0 0.0070912004
-0.20695139 0.049448568 -0.64099997 0 0 0 0.0070912004
-0.2054095 0.049371429 -0.63999999 0 0 0 0.0071603302
-0.2045095 0.049448568 -0.64099997 0 0 0 0.0071603302
-0.2032886 0.049448568 -0.64099997 0 0 0 0.0070270025
-0.2023828 0.049525719 -0.64200002 0 0 0 0.0070270025
-0.2005333 0.049371429 -0.63999999 0 0 0 0.0073455479
-0.2011829 0.049834289 -0.64600003 0 0 0 0.0074671069
-0.19995239 0.049834289 -0.64600003 0 0 0 0.0074671069
-0.1987219 0.049834289 -0.64600003 0 0 0 0.0074671069
-0.1977971 0.049911428 -0.64700001 0 0 0 0.0078155566
-0.19656479 0.049911428 -0.64700001 0 0 0 0.0070270025
-0.19654 0.050220001 -0.65100002 0 0 0 0.0076603638
-0.1953 0.050220001 -0.65100002 0 0 0 0.0076603638
-0.19406 0.050220001 -0.65100002 0 0 0 0.0076603638
-0.1931162 0.050297141 -0.65200001 0 0 0 0.0077467579
-0.19216859 0.050374292 -0.65300012 0 0 0 0.007681184
-0.19092479 0.050374292 -0.65300012 0 0 0 0.0078155566
-0.1902619 0.050528571 -0.65499997 0 0 0 0.0078155566
-0.18930291 0.050605711 -0.65600002 0 0 0 0.0076429402
-0.1880533 0.050605711 -0.65600002 0 0 0 0.0068338816
-0.18708859 0.05068285 -0.65700001 0 0 0 0.0076603638
-0.18612 0.050760001 -0.65800011 0 0 0 0.0077467579
-0.1848667 0.050760001 -0.65800011 0 0 0 0.0078710038
-0.18417139 0.050914291 -0.66000003 0 0 0 0.007681184
-0.1831914 0.050991431 -0.66100001 0 0 0 0.0078155566
-0.1819324 0.050991431 -0.66100001 0 0 0 0.0078155566
-0.1806733 0.050991431 -0.66100001 0 0 0 0.0074957954
-0.1794143 0.050991431 -0.66100001 0 0 0 0.0077124219
-0.1781552 0.050991431 -0.66100001 0 0 0 0.0068338816
-0.26597911 0.046798099 -0.62199998 0 0 0 0.0073548146
-0.2639429 0.046647619 -0.62 0 0 0 0.0073548146
-0.26276189 0.046647619 -0.62 0 0 0 0.0075758533
-0.25989339 0.046346668 -0.61600012 0 0 0 0.0075758533
-0.25872001 0.046346668 -0.61600012 0 0 0 0.0074107586
-0.2571286 0.046271428 -0.61500001 0 0 0 0.0068257335
-0.25595719 0.046271428 -0.61500001 0 0 0 0.0068257335
-0.25478569 0.046271428 -0.61500001 0 0 0 0.0075577623
-0.2532019 0.046196189 -0.61400002 0 0 0 0.006643807
-0.2524429 0.046271428 -0.61500001 0 0 0 0.006643807
-0.2512714 0.046271428 -0.61500001 0 0 0 0.006643807
-0.2496933 0.046196189 -0.61400002 0 0 0 0.0072753537
-0.2485238 0.046196189 -0.61400002 0 0 0 0.0068257335
-0.24816 0.046346668 -0.61600012 0 0 0 0.0068257335
-0.2469867 0.046346668 -0.61600012 0 0 0 0.0069848951
-0.2454143 0.046271428 -0.61500001 0 0 0 0.0070326691
-0.2438457 0.046196189 -0.61400002 0 0 0 0.0070326691
-0.2426762 0.046196189 -0.61400002 0 0 0 0.0063422276
-0.2415067 0.046196189 -0.61400002 0 0 0 0.006643807
-0.23994569 0.046120949 -0.61299998 0 0 0 0.0064505367
-0.2387781 0.046120949 -0.61299998 0 0 0 0.0068538003
-0.2376105 0.046120949 -0.61299998 0 0 0 0.0068538003
-0.2368286 0.046196189 -0.61400002 0 0 0 0.0064518643
-0.23565909 0.046196189 -0.61400002 0 0 0 0.0070326691
-0.2352533 0.046346668 -0.61600012 0 0 0 0.0063371845
-0.23446 0.046421912 -0.61699998 0 0 0 0.0063422276
-0.2332848 0.046421912 -0.61699998 0 0 0 0.0063422276
-0.2321095 0.046421912 -0.61699998 0 0 0 0.0053674215
-0.23093431 0.046421912 -0.61699998 0 0 0 0.0059504784
-0.2297591 0.046421912 -0.61699998 0 0 0 0.0059504784
-0.2285838 0.046421912 -0.61699998 0 0 0 0.0064518643
-0.2274086 0.046421912 -0.61699998 0 0 0 0.0063859201
-0.2262333 0.046421912 -0.61699998 0 0 0 0.0063371845
-0.22505809 0.046421912 -0.61699998 0 0 0 0.0063422276
-0.2242457 0.04649714 -0.61799997 0 0 0 0.0063422276
-0.2237905 0.046647619 -0.62 0 0 0 0.0063422276
-0.22260951 0.046647619 -0.62 0 0 0 0.0077740555
-0.22107141 0.04657238 -0.61900002 0 0 0 0.0053674215
-0.2202476 0.046647619 -0.62 0 0 0 0.0053674215
-0.2187133 0.04657238 -0.61900002 0 0 0 0.0058075157
-0.22034571 0.04717429 -0.62699997 0 0 0 0.0058075157
-0.21915139 0.04717429 -0.62699997 0 0 0 0.0064091147
-0.21760949 0.04709905 -0.62599999 0 0 0 0.0064091147
-0.21641719 0.04709905 -0.62599999 0 0 0 0.0063422276
-0.2155686 0.04717429 -0.62699997 0 0 0 0.0067358417
-0.2147162 0.04724953 -0.62800002 0 0 0 0.0063977307
-0.21352001 0.04724953 -0.62800002 0 0 0 0.007786619
-0.21266191 0.047324762 -0.62900001 0 0 0 0.0058075157
-0.21146379 0.047324762 -0.62900001 0 0 0 0.0053965528
-0.2109343 0.047475241 -0.63099998 0 0 0 0.0053965528
-0.2120591 0.0480019 -0.63800001 0 0 0 0.006503684
-0.2108438 0.0480019 -0.63800001 0 0 0 0.0067358417
-0.2096286 0.0480019 -0.63800001 0 0 0 0.0063977307
-0.2090667 0.048152391 -0.63999999 0 0 0 0.00714267
-0.2084972 0.048302859 -0.64200002 0 0 0 0.007786619
-0.2072743 0.048302859 -0.64200002 0 0 0 0.007786619
-0.2057305 0.048227619 -0.64099997 0 0 0 0.0053965528
-0.2045095 0.048227619 -0.64099997 0 0 0 0.0053965528
-0.2036057 0.048302859 -0.64200002 0 0 0 0.0067358417
-0.2030133 0.048453331 -0.64400011 0 0 0 0.0064768358
-0.2017867 0.048453331 -0.64400011 0 0 0 0.0064768358
-0.2018057 0.04875429 -0.648 0 0 0 0.006739914
-0.2005714 0.04875429 -0.648 0 0 0 0.0075714844
-0.19902951 0.04867905 -0.64700001 0 0 0 0.0075714844
-0.1981028 0.04875429 -0.648 0 0 0 0.0074003749
-0.19656479 0.04867905 -0.64700001 0 0 0 0.0075370925
-0.19654 0.048980001 -0.65100002 0 0 0 0.0068405373
-0.1953 0.048980001 -0.65100002 0 0 0 0.0068405373
-0.19406 0.048980001 -0.65100002 0 0 0 0.0068405373
-0.1931162 0.049055241 -0.65200001 0 0 0 0.0072498084
-0.19216859 0.049130481 -0.65300012 0 0 0 0.0071589835
-0.19092479 0.049130481 -0.65300012 0 0 0 0.0074003749
-0.1902619 0.049280949 -0.65499997 0 0 0 0.0075370925
-0.18930291 0.049356189 -0.65600002 0 0 0 0.0075460845
-0.1880533 0.049356189 -0.65600002 0 0 0 0.0068405373
-0.18708859 0.049431428 -0.65700001 0 0 0 0.0068405373
-0.1858371 0.049431428 -0.65700001 0 0 0 0.0065304437
-0.1848667 0.049506672 -0.65800011 0 0 0 0.0068189837
-0.18417139 0.04965714 -0.66000003 0 0 0 0.0074003749
-0.1829143 0.04965714 -0.66000003 0 0 0 0.0075370925
-0.1822076 0.049807619 -0.66200012 0 0 0 0.0075460845
-0.18094669 0.049807619 -0.66200012 0 0 0 0.0075460845
-0.1796857 0.049807619 -0.66200012 0 0 0 0.0080551673
-0.17842481 0.049807619 -0.66200012 0 0 0 0.0065304437
-0.26512381 0.045466669 -0.62 0 0 0 0.0068189837
-0.2639429 0.045466669 -0.62 0 0 0 0.0071843374
-0.26276189 0.045466669 -0.62 0 0 0 0.0076255654
-0.25989339 0.04517334 -0.61600012 0 0 0 0.0075460845
-0.25872001 0.04517334 -0.61600012 0 0 0 0.0080551673
-0.25754669 0.04517334 -0.61600012 0 0 0 0.007685734
-0.25595719 0.0451 -0.61500001 0 0 0 0.0076015885
-0.25478569 0.0451 -0.61500001 0 0 0 0.0076015885
-0.25361431 0.0451 -0.61500001 0 0 0 0.0063101952
-0.2524429 0.0451 -0.61500001 0 0 0 0.0069204741
-0.2512714 0.0451 -0.61500001 0 0 0 0.0069204741
-0.25009999 0.0451 -0.61500001 0 0 0 0.0076074428
-0.24892861 0.0451 -0.61500001 0 0 0 0.0078047491
-0.24816 0.04517334 -0.61600012 0 0 0 0.007685734
-0.2469867 0.04517334 -0.61600012 0 0 0 0.0076015885
-0.2454143 0.0451 -0.61500001 0 0 0 0.0076015885
-0.24424291 0.0451 -0.61500001 0 0 0 0.0077897068
-0.2426762 0.045026671 -0.61400002 0 0 0 0.0069204741
-0.2415067 0.045026671 -0.61400002 0 0 0 0.0078047491
-0.23994569 0.044953339 -0.61299998 0 0 0 0.007729304
-0.2387781 0.044953339 -0.61299998 0 0 0 0.007729304
-0.2379981 0.045026671 -0.61400002 0 0 0 0.0077897068
-0.2372143 0.0451 -0.61500001 0 0 0 0.0074618259
-0.2360429 0.0451 -0.61500001 0 0 0 0.0078753028
-0.2356353 0.045246668 -0.61699998 0 0 0 0.0076022195
-0.23446 0.045246668 -0.61699998 0 0 0 0.0076022195
-0.2336629 0.04532 -0.61799997 0 0 0 0.0076022195
-0.2324857 0.04532 -0.61799997 0 0 0 0.0076126745
-0.23093431 0.045246668 -0.61699998 0 0 0 0.0074618259
-0.2297591 0.045246668 -0.61699998 0 0 0 0.0073080701
-0.2289543 0.04532 -0.61799997 0 0 0 0.0078753028
-0.2277772 0.04532 -0.61799997 0 0 0 0.0081815301
-0.2262333 0.045246668 -0.61699998 0 0 0 0.0095867766
-0.2254229 0.04532 -0.61799997 0 0 0 0.0074425945
-0.2242457 0.04532 -0.61799997 0 0 0 0.0074349581
-0.2237905 0.045466669 -0.62 0 0 0 0.0074349581
-0.22332761 0.045613341 -0.62199998 0 0 0 0.0073080701
-0.2221429 0.045613341 -0.62199998 0 0 0 0.0071440502
-0.2209581 0.045613341 -0.62199998 0 0 0 0.0081815301
-0.21977331 0.045613341 -0.62199998 0 0 0 0.0095867766
-0.22034571 0.045979999 -0.62699997 0 0 0 0.0095867766
-0.219501 0.046053339 -0.62800002 0 0 0 0.0074349581
-0.2179572 0.045979999 -0.62699997 0 0 0 0.0074349581
-0.21710861 0.046053339 -0.62800002 0 0 0 0.0072414684
-0.2159124 0.046053339 -0.62800002 0 0 0 0.0072414684
-0.2150581 0.046126671 -0.62900001 0 0 0 0.0077021285
-0.21386001 0.046126671 -0.62900001 0 0 0 0.008438196
-0.21333811 0.04627334 -0.63099998 0 0 0 0.0095867766
-0.21213619 0.04627334 -0.63099998 0 0 0 0.010930258
-0.2109343 0.04627334 -0.63099998 0 0 0 0.011991818
-0.21239141 0.046859998 -0.63900012 0 0 0 0.0065613268
-0.21117429 0.046859998 -0.63900012 0 0 0 0.0073205945
-0.21028569 0.046933331 -0.63999999 0 0 0 0.0073205945
-0.20939329 0.04700667 -0.64099997 0 0 0 0.0080904672
-0.2081724 0.04700667 -0.64099997 0 0 0 0.0094614215
-0.2072743 0.047079999 -0.64200002 0 0 0 0.010930258
-0.20605139 0.047079999 -0.64200002 0 0 0 0.011991818
-0.20482861 0.047079999 -0.64200002 0 0 0 0.013769131
-0.20423999 0.047226671 -0.64400011 0 0 0 0.013769131
-0.20332859 0.0473 -0.64499998 0 0 0 0.0073205945
-0.20209999 0.0473 -0.64499998 0 0 0 0.0073205945
-0.2018057 0.04752 -0.648 0 0 0 0.0080904672
-0.20026191 0.047446668 -0.64700001 0 0 0 0.0094614215
-0.19902951 0.047446668 -0.64700001 0 0 0 0.01085736
-0.1977971 0.047446668 -0.64700001 0 0 0 0.012133534
-0.19656479 0.047446668 -0.64700001 0 0 0 0.013769131
-0.1968419 0.04781333 -0.65200001 0 0 0 0.013769131
-0.1956 0.04781333 -0.65200001 0 0 0 0.013769131
-0.1943581 0.04781333 -0.65200001 0 0 0 0.0080904672
-0.19341239 0.04788667 -0.65300012 0 0 0 0.0080904672
-0.19216859 0.04788667 -0.65300012 0 0 0 0.013444251
-0.19092479 0.04788667 -0.65300012 0 0 0 0.013444251
-0.1902619 0.048033331 -0.65499997 0 0 0 0.012449506
-0.18930291 0.04810667 -0.65600002 0 0 0 0.013464436
-0.1880533 0.04810667 -0.65600002 0 0 0 0.016684767
-0.18708859 0.048179999 -0.65700001 0 0 0 0.016684767
-0.1858371 0.048179999 -0.65700001 0 0 0 0.016684767
-0.1848667 0.048253339 -0.65800011 0 0 0 0.013444251
-0.18417139 0.0484 -0.66000003 0 0 0 0.013444251
-0.1831914 0.048473328 -0.66100001 0 0 0 0.01278568
-0.1822076 0.048546668 -0.66200012 0 0 0 0.014902137
-0.18094669 0.048546668 -0.66200012 0 0 0 0.014902137
-0.1796857 0.048546668 -0.66200012 0 0 0 0.016684767
-0.17842481 0.048546668 -0.66200012 0 0 0 0.016684767
-0.17716379 0.048546668 -0.66200012 0 0 0 0.018939296
-0.26512381 0.044285711 -0.62 0 0 0 0.0097824419
-0.2639429 0.044285711 -0.62 0 0 0 0.015604384
-0.26276189 0.044285711 -0.62 0 0 0 0.015604384
-0.2603153 0.044071428 -0.61699998 0 0 0 0.015604384
-0.25914001 0.044071428 -0.61699998 0 0 0 0.017091734
-0.25754669 0.044 -0.61600012 0 0 0 0.01678722
-0.25595719 0.043928571 -0.61500001 0 0 0 0.017599506
-0.25478569 0.043928571 -0.61500001 0 0 0 0.018939296
-0.25361431 0.043928571 -0.61500001 0 0 0 0.018616123
-0.2524429 0.043928571 -0.61500001 0 0 0 0.013243103
-0.2512714 0.043928571 -0.61500001 0 0 0 0.013243103
-0.25009999 0.043928571 -0.61500001 0 0 0 0.017091734
-0.2493334 0.044 -0.61600012 0 0 0 0.01678722
-0.24816 0.044 -0.61600012 0 0 0 0.017571229
-0.2469867 0.044 -0.61600012 0 0 0 0.0185642
-0.2454143 0.043928571 -0.61500001 0 0 0 0.018616123
-0.24424291 0.043928571 -0.61500001 0 0 0 0.019137509
-0.24307141 0.043928571 -0.61500001 0 0 0 0.019137509
-0.2419 0.043928571 -0.61500001 0 0 0 0.013243103
-0.2403371 0.04385715 -0.61400002 0 0 0 0.013243103
-0.2387781 0.043785721 -0.61299998 0 0 0 0.017571229
-0.2379981 0.04385715 -0.61400002 0 0 0 0.017571229
-0.2372143 0.043928571 -0.61500001 0 0 0 0.017368983
-0.2364267 0.044 -0.61600012 0 0 0 0.018122254
-0.2356353 0.044071428 -0.61699998 0 0 0 0.018649179
-0.23484001 0.044142861 -0.61799997 0 0 0 0.018649179
-0.2336629 0.044142861 -0.61799997 0 0 0 0.018066466
-0.2324857 0.044142861 -0.61799997 0 0 0 0.018066466
-0.23130859 0.044142861 -0.61799997 0 0 0 0.016004752
-0.2301314 0.044142861 -0.61799997 0 0 0 0.016004752
-0.2289543 0.044142861 -0.61799997 0 0 0 0.016004752
-0.2277772 0.044142861 -0.61799997 0 0 0 0.017281139
-0.22660001 0.044142861 -0.61799997 0 0 0 0.017821087
-0.2254229 0.044142861 -0.61799997 0 0 0 0.01775578
-0.2249714 0.044285711 -0.62 0 0 0 0.018066466
-0.2245124 0.044428568 -0.62199998 0 0 0 0.018066466
-0.22332761 0.044428568 -0.62199998 0 0 0 0.018066466
-0.2221429 0.044428568 -0.62199998 0 0 0 0.016004752
-0.2209581 0.044428568 -0.62199998 0 0 0 0.016004752
-0.21977331 0.044428568 -0.62199998 0 0 0 0.017281139
-0.2206971 0.044857141 -0.62800002 0 0 0 0.017353147
-0.219501 0.044857141 -0.62800002 0 0 0 0.01775578
-0.2183048 0.044857141 -0.62800002 0 0 0 0.017158436
-0.21710861 0.044857141 -0.62800002 0 0 0 0.017290844
-0.2162562 0.044928569 -0.62900001 0 0 0 0.017290844
-0.2150581 0.044928569 -0.62900001 0 0 0 0.01754844
-0.21488 0.045142859 -0.63200003 0 0 0 0.013784512
-0.21401431 0.045214292 -0.63300002 0 0 0 0.014588109
-0.21247239 0.045142859 -0.63200003 0 0 0 0.017353147
-0.2122715 0.045357149 -0.63500011 0 0 0 0.016737627
-0.2120591 0.045571432 -0.63800001 0 0 0 0.017389359
-0.21117429 0.04564286 -0.63900012 0 0 0 0.01754844
-0.2099572 0.04564286 -0.63900012 0 0 0 0.01754844
-0.20939329 0.04578571 -0.64099997 0 0 0 0.01754844
-0.2081724 0.04578571 -0.64099997 0 0 0 0.014588109
-0.20792 0.046 -0.64400011 0 0 0 0.015393352
-0.20605139 0.045857139 -0.64200002 0 0 0 0.016866738
-0.20482861 0.045857139 -0.64200002 0 0 0 0.017652268
-0.2051914 0.04621429 -0.64700001 0 0 0 0.017652268
-0.2042743 0.046285711 -0.648 0 0 0 0.018572044
-0.20304 0.046285711 -0.648 0 0 0 0.018572044
-0.2018057 0.046285711 -0.648 0 0 0 0.018933717
-0.20026191 0.04621429 -0.64700001 0 0 0 0.013574016
-0.19902951 0.04621429 -0.64700001 0 0 0 0.016048057
-0.1981028 0.046285711 -0.648 0 0 0 0.016048057
-0.19656479 0.04621429 -0.64700001 0 0 0 0.017831229
-0.19533239 0.04621429 -0.64700001 0 0 0 0.017923495
-0.1956 0.04657143 -0.65200001 0 0 0 0.017923495
-0.19465619 0.046642859 -0.65300012 0 0 0 0.017807264
-0.19341239 0.046642859 -0.65300012 0 0 0 0.017807264
-0.1927571 0.04678572 -0.65499997 0 0 0 0.017807264
-0.19180191 0.046857141 -0.65600002 0 0 0 0.016048057
-0.1905524 0.046857141 -0.65600002 0 0 0 0.016048057
-0.18930291 0.046857141 -0.65600002 0 0 0 0.017207006
-0.18833999 0.04692857 -0.65700001 0 0 0 0.017207006
-0.1873734 0.046999998 -0.65800011 0 0 0 0.017807264
-0.18612 0.046999998 -0.65800011 0 0 0 0.017807264
-0.1854286 0.04714286 -0.66000003 0 0 0 0.018233661
-0.18417139 0.04714286 -0.66000003 0 0 0 0.019039225
-0.1834686 0.047285721 -0.66200012 0 0 0 0.015124169
-0.1824829 0.047357149 -0.66299999 0 0 0 0.017207006
-0.18122 0.047357149 -0.66299999 0 0 0 0.017207006
-0.1796857 0.047285721 -0.66200012 0 0 0 0.017034348
-0.17842481 0.047285721 -0.66200012 0 0 0 0.017034348
-0.17716379 0.047285721 -0.66200012 0 0 0 0.018233661
-0.26479429 0.043243811 -0.62199998 0 0 0 0.017855693
-0.2636095 0.043243811 -0.62199998 0 0 0 0.019039225
-0.2624248 0.043243811 -0.62199998 0 0 0 0.019039225
-0.25997999 0.043035239 -0.61900002 0 0 0 0.015571028
-0.25796479 0.042896189 -0.61699998 0 0 0 0.01639441
-0.25678951 0.042896189 -0.61699998 0 0 0 0.01639441
-0.25561431 0.042896189 -0.61699998 0 0 0 0.017845459
-0.25443909 0.042896189 -0.61699998 0 0 0 0.017025258
-0.25285339 0.042826671 -0.61600012 0 0 0 0.018011961
-0.25167999 0.042826671 -0.61600012 0 0 0 0.018483607
-0.2505067 0.042826671 -0.61600012 0 0 0 0.018483607
-0.2493334 0.042826671 -0.61600012 0 0 0 0.015571028
-0.24816 0.042826671 -0.61600012 0 0 0 0.015571028
-0.2469867 0.042826671 -0.61600012 0 0 0 0.0165153
-0.2458134 0.042826671 -0.61600012 0 0 0 0.017845459
-0.24463999 0.042826671 -0.61600012 0 0 0 0.018054103
-0.24346671 0.042826671 -0.61600012 0 0 0 0.018483607
-0.2422933 0.042826671 -0.61600012 0 0 0 0.018483607
-0.2407286 0.042757139 -0.61500001 0 0 0 0.018483607
-0.2395571 0.042757139 -0.61500001 0 0 0 0.020267796
-0.23838571 0.042757139 -0.61500001 0 0 0 0.015571028
-0.2376 0.042826671 -0.61600012 0 0 0 0.015571028
-0.2364267 0.042826671 -0.61600012 0 0 0 0.017319432
-0.2356353 0.042896189 -0.61699998 0 0 0 0.019219376
-0.23484001 0.042965721 -0.61799997 0 0 0 0.019219376
-0.2336629 0.042965721 -0.61799997 0 0 0 0.020316865
-0.2324857 0.042965721 -0.61799997 0 0 0 0.020459607
-0.23130859 0.042965721 -0.61799997 0 0 0 0.020307925
-0.2305038 0.043035239 -0.61900002 0 0 0 0.020307925
-0.2293248 0.043035239 -0.61900002 0 0 0 0.014385941
-0.2277772 0.042965721 -0.61799997 0 0 0 0.018138511
-0.22660001 0.042965721 -0.61799997 0 0 0 0.019182436
-0.22578759 0.043035239 -0.61900002 0 0 0 0.02032344
-0.2256971 0.043243811 -0.62199998 0 0 0 0.02032344
-0.2248733 0.043313328 -0.62300003 0 0 0 0.020210773
-0.2236867 0.043313328 -0.62300003 0 0 0 0.020364013
-0.2225 0.043313328 -0.62300003 0 0 0 0.020232087
-0.2213133 0.043313328 -0.62300003 0 0 0 0.020334722
-0.2201267 0.043313328 -0.62300003 0 0 0 0.020334722
-0.2217515 0.043869529 -0.63099998 0 0 0 0.019031148
-0.22054949 0.043869529 -0.63099998 0 0 0 0.019031148
-0.2186524 0.043730479 -0.62900001 0 0 0 0.0196747
-0.2181457 0.043869529 -0.63099998 0 0 0 0.019295974
-0.2169438 0.043869529 -0.63099998 0 0 0 0.019951444
-0.2157419 0.043869529 -0.63099998 0 0 0 0.019896219
-0.21522 0.044008572 -0.63300002 0 0 0 0.019945435
-0.2143524 0.0440781 -0.634 0 0 0 0.020403452
-0.21280859 0.044008572 -0.63300002 0 0 0 0.020403452
-0.2122715 0.044147622 -0.63500011 0 0 0 0.022454506
-0.2120591 0.04435619 -0.63800001 0 0 0 0.017630585
-0.21117429 0.044425718 -0.63900012 0 0 0 0.017630585
-0.21028569 0.04449524 -0.63999999 0 0 0 0.018718928
-0.20939329 0.044564761 -0.64099997 0 0 0 0.018491151
-0.2084972 0.04463429 -0.64200002 0 0 0 0.019226603
-0.20792 0.04477334 -0.64400011 0 0 0 0.019348634
-0.2066934 0.04477334 -0.64400011 0 0 0 0.018503577
-0.2054667 0.04477334 -0.64400011 0 0 0 0.018650189
-0.2055086 0.045051429 -0.648 0 0 0 0.019797996
-0.2042743 0.045051429 -0.648 0 0 0 0.021442793
-0.20304 0.045051429 -0.648 0 0 0 0.017630585
-0.2018057 0.045051429 -0.648 0 0 0 0.017471641
-0.2005714 0.045051429 -0.648 0 0 0 0.017279927
-0.1993371 0.045051429 -0.648 0 0 0 0.017279927
-0.1981028 0.045051429 -0.648 0 0 0 0.017831774
-0.1968686 0.045051429 -0.648 0 0 0 0.018503577
-0.19533239 0.044981912 -0.64700001 0 0 0 0.018650189
-0.1956 0.045329519 -0.65200001 0 0 0 0.018526457
-0.19465619 0.045399051 -0.65300012 0 0 0 0.019797996
-0.19341239 0.045399051 -0.65300012 0 0 0 0.020027457
-0.1933457 0.04567714 -0.65700001 0 0 0 0.017279927
-0.1920943 0.04567714 -0.65700001 0 0 0 0.017279927
-0.1908429 0.04567714 -0.65700001 0 0 0 0.017669657
-0.18959139 0.04567714 -0.65700001 0 0 0 0.017669657
-0.18862671 0.045746669 -0.65800011 0 0 0 0.018118754
-0.1873734 0.045746669 -0.65800011 0 0 0 0.018526457
-0.1866857 0.045885719 -0.66000003 0 0 0 0.018526457
-0.1854286 0.045885719 -0.66000003 0 0 0 0.020027457
-0.18445051 0.045955241 -0.66100001 0 0 0 0.020027457
-0.1837457 0.046094291 -0.66299999 0 0 0 0.015215978
-0.1822076 0.04602477 -0.66200012 0 0 0 0.017669657
-0.18122 0.046094291 -0.66299999 0 0 0 0.019607862
-0.1799572 0.046094291 -0.66299999 0 0 0 0.019451788
-0.17869429 0.046094291 -0.66299999 0 0 0 0.019451788
-0.1774314 0.046094291 -0.66299999 0 0 0 0.019399259
-0.17616861 0.046094291 -0.66299999 0 0 0 0.020027457
-0.26521999 0.04212667 -0.62300003 0 0 0 0.020027457
-0.26403329 0.04212667 -0.62300003 0 0 0 0.020027457
-0.26284671 0.04212667 -0.62300003 0 0 0 0.027468663
-0.25997999 0.041856188 -0.61900002 0 0 0 0.025596365
-0.25838289 0.041788571 -0.61799997 0 0 0 0.019607862
-0.25678951 0.04172096 -0.61699998 0 0 0 0.019607862
-0.25561431 0.04172096 -0.61699998 0 0 0 0.020754408
-0.25443909 0.04172096 -0.61699998 0 0 0 0.020756679
-0.2532638 0.04172096 -0.61699998 0 0 0 0.020756679
-0.25167999 0.041653339 -0.61600012 0 0 0 0.020027457
-0.25091341 0.04172096 -0.61699998 0 0 0 0.020027457
-0.2497381 0.04172096 -0.61699998 0 0 0 0.027468663
-0.2485629 0.04172096 -0.61699998 0 0 0 0.027468663
-0.2469867 0.041653339 -0.61600012 0 0 0 0.030359896
-0.2458134 0.041653339 -0.61600012 0 0 0 0.030359896
-0.24463999 0.041653339 -0.61600012 0 0 0 0.026757676
-0.24346671 0.041653339 -0.61600012 0 0 0 0.023884784
-0.2422933 0.041653339 -0.61600012 0 0 0 0.022771312
-0.24112 0.041653339 -0.61600012 0 0 0 0.022771312
-0.2395571 0.04158571 -0.61500001 0 0 0 0.020027457
-0.2387733 0.041653339 -0.61600012 0 0 0 0.027468663
-0.2379857 0.04172096 -0.61699998 0 0 0 0.027468663
-0.23681051 0.04172096 -0.61699998 0 0 0 0.035287634
-0.2360172 0.041788571 -0.61799997 0 0 0 0.030359896
-0.23522 0.041856188 -0.61900002 0 0 0 0.034679361
-0.2336629 0.041788571 -0.61799997 0 0 0 0.040565953
-0.23286191 0.041856188 -0.61900002 0 0 0 0.047730163
-0.2316829 0.041856188 -0.61900002 0 0 0 0.051895943
-0.2305038 0.041856188 -0.61900002 0 0 0 0.049369983
-0.2293248 0.041856188 -0.61900002 0 0 0 0.049369983
-0.2281457 0.041856188 -0.61900002 0 0 0 0.038262054
-0.22696669 0.041856188 -0.61900002 0 0 0 0.038262054
-0.22615241 0.04192381 -0.62 0 0 0 0.040976193
-0.22606 0.04212667 -0.62300003 0 0 0 0.040976193
-0.2252343 0.042194281 -0.62400001 0 0 0 0.046767548
-0.22404569 0.042194281 -0.62400001 0 0 0 0.051265299
-0.2232143 0.04226191 -0.625 0 0 0 0.052111499
-0.2220238 0.04226191 -0.625 0 0 0 0.051895943
-0.2211867 0.042329531 -0.62599999 0 0 0 0.060170155
-0.2221029 0.042735241 -0.63200003 0 0 0 0.056816444
-0.22054949 0.04266762 -0.63099998 0 0 0 0.031466674
-0.2196952 0.042735241 -0.63200003 0 0 0 0.038262054
-0.21849141 0.042735241 -0.63200003 0 0 0 0.040976193
-0.2172876 0.042735241 -0.63200003 0 0 0 0.049684227
-0.21608379 0.042735241 -0.63200003 0 0 0 0.056396723
-0.21556 0.042870481 -0.634 0 0 0 0.060808819
-0.21469051 0.042938098 -0.63500011 0 0 0 0.060808819
-0.21314479 0.042870481 -0.634 0 0 0 0.059580255
-0.2126057 0.04300572 -0.63599998 0 0 0 0.071221761
-0.2113943 0.04300572 -0.63599998 0 0 0 0.071221761
-0.2115048 0.043276191 -0.63999999 0 0 0 0.06828136
-0.21061429 0.043343809 -0.64099997 0 0 0 0.06828136
-0.20972 0.04341143 -0.64200002 0 0 0 0.06828136
-0.20914669 0.043546669 -0.64400011 0 0 0 0.068626814
-0.20824289 0.043614291 -0.64499998 0 0 0 0.071132831
-0.20701431 0.043614291 -0.64499998 0 0 0 0.078980327
-0.20578571 0.043614291 -0.64499998 0 0 0 0.078980327
-0.2055086 0.04381714 -0.648 0 0 0 0.078980327
-0.2042743 0.04381714 -0.648 0 0 0 0.072062701
-0.20304 0.04381714 -0.648 0 0 0 0.072062701
-0.2018057 0.04381714 -0.648 0 0 0 0.072062701
-0.2005714 0.04381714 -0.648 0 0 0 0.072062701
-0.1993371 0.04381714 -0.648 0 0 0 0.071132831
-0.1981028 0.04381714 -0.648 0 0 0 0.078980327
-0.1968686 0.04381714 -0.648 0 0 0 0.078980327
-0.1954857 0.044628572 -0.66000003 0 0 0 0.078980327
-0.1942286 0.044628572 -0.66000003 0 0 0 0.072062701
-0.19297139 0.044628572 -0.66000003 0 0 0 0.072062701
-0.19113339 0.04449334 -0.65800011 0 0 0 0.072062701
-0.1904572 0.044628572 -0.66000003 0 0 0 0.092213184
-0.18862671 0.04449334 -0.65800011 0 0 0 0.092213184
-0.18794291 0.044628572 -0.66000003 0 0 0 0.086824127
-0.1866857 0.044628572 -0.66000003 0 0 0 0.086824127
-0.18570951 0.044696189 -0.66100001 0 0 0 0.086824127
-0.18445051 0.044696189 -0.66100001 0 0 0 0.1255932
-0.1837457 0.044831429 -0.66299999 0 0 0 0.072062701
-0.1822076 0.044763811 -0.66200012 0 0 0 0.10118798
-0.18122 0.044831429 -0.66299999 0 0 0 0.10118798
-0.1799572 0.044831429 -0.66299999 0 0 0 0.10118798
-0.17869429 0.044831429 -0.66299999 0 0 0 0.10118798
-0.1774314 0.044831429 -0.66299999 0 0 0 0.096170783
-0.1772314 0.045101911 -0.66700011 0 0 0 0.096170783
-0.175961 0.045101911 -0.66700011 0 0 0 0.096170783
-0.26564571 0.041005708 -0.62400001 0 0 0 0.12421876
-0.26445711 0.041005708 -0.62400001 0 0 0 0.12421876
-0.26326859 0.041005708 -0.62400001 0 0 0 0.12421876
-0.2604 0.040742859 -0.62 0 0 0 0.11120817
-0.25921911 0.040742859 -0.62 0 0 0 0.11120817
-0.2580381 0.040742859 -0.62 0 0 0 0.11120817
-0.25602859 0.040611431 -0.61799997 0 0 0 0.11120817
-0.25443909 0.040545721 -0.61699998 0 0 0 0.11259034
-0.2532638 0.040545721 -0.61699998 0 0 0 0.096170783
-0.25208861 0.040545721 -0.61699998 0 0 0 0.096170783
-0.25091341 0.040545721 -0.61699998 0 0 0 0.12421876
-0.2497381 0.040545721 -0.61699998 0 0 0 0.12421876
-0.2485629 0.040545721 -0.61699998 0 0 0 0.12421876
-0.2473876 0.040545721 -0.61699998 0 0 0 0.12421876
-0.2458134 0.04048001 -0.61600012 0 0 0 0.12039138
-0.24463999 0.04048001 -0.61600012 0 0 0 0.11854087
-0.24346671 0.04048001 -0.61600012 0 0 0 0.11854087
-0.2422933 0.04048001 -0.61600012 0 0 0 0.11878631
-0.24112 0.04048001 -0.61600012 0 0 0 0.11878631
-0.23994669 0.04048001 -0.61600012 0 0 0 0.10697071
-0.2387733 0.04048001 -0.61600012 0 0 0 0.11793002
-0.2379857 0.040545721 -0.61699998 0 0 0 0.12421876
-0.23757809 0.040677149 -0.61900002 0 0 0 0.12421876
-0.2363991 0.040677149 -0.61900002 0 0 0 0.12421876
-0.23522 0.040677149 -0.61900002 0 0 0 0.12039138
-0.234419 0.040742859 -0.62 0 0 0 0.12039138
-0.2332381 0.040742859 -0.62 0 0 0 0.12039138
-0.23205709 0.040742859 -0.62 0 0 0 0.12069949
-0.23087621 0.040742859 -0.62 0 0 0 0.12069949
-0.2296952 0.040742859 -0.62 0 0 0 0.12069949
-0.2285143 0.040742859 -0.62 0 0 0 0.10936771
-0.2280667 0.040874291 -0.62199998 0 0 0 0.10936771
-0.2272467 0.040940002 -0.62300003 0 0 0 0.10936771
-0.22642291 0.041005708 -0.62400001 0 0 0 0.12421876
-0.22559521 0.04107143 -0.625 0 0 0 0.12039138
-0.2244048 0.04107143 -0.625 0 0 0 0.12039138
-0.2232143 0.04107143 -0.625 0 0 0 0.12039138
-0.2227343 0.041202862 -0.62699997 0 0 0 0.12039138
-0.22224671 0.04133429 -0.62900001 0 0 0 0.052708715
-0.22104859 0.04133429 -0.62900001 0 0 0 0.10936771
-0.2212486 0.041597139 -0.63300002 0 0 0 0.10936771
-0.2200429 0.041597139 -0.63300002 0 0 0 0.10936771
-0.2191828 0.041662861 -0.634 0 0 0 0.12039138
-0.2179752 0.041662861 -0.634 0 0 0 0.047886111
-0.21676759 0.041662861 -0.634 0 0 0 0.047886111
-0.21556 0.041662861 -0.634 0 0 0 0.047886111
-0.21469051 0.041728571 -0.63500011 0 0 0 0.047886111
-0.21348099 0.041728571 -0.63500011 0 0 0 0.047886111
-0.2126057 0.041794289 -0.63599998 0 0 0 0.047886111
-0.21239141 0.041991431 -0.63900012 0 0 0 0.047886111
-0.2115048 0.042057149 -0.63999999 0 0 0 0.047886111
-0.21094289 0.04218857 -0.64200002 0 0 0 0.047886111
-0.20972 0.04218857 -0.64200002 0 0 0 0.047886111
-0.2094714 0.04238572 -0.64499998 0 0 0 0.047886111
-0.20921139 0.042582858 -0.648 0 0 0 0.047886111
-0.2076562 0.042517141 -0.64700001 0 0 0 0.047886111
-0.2064238 0.042517141 -0.64700001 0 0 0 0.047886111
-0.2055086 0.042582858 -0.648 0 0 0 0.0088650472
-0.2042743 0.042582858 -0.648 0 0 0 0.0088650472
-0.20304 0.042582858 -0.648 0 0 0 0.0088650472
-0.19607811 0.04350286 -0.66200012 0 0 0 0.008786709
-0.1948172 0.04350286 -0.66200012 0 0 0 0.008786709
-0.1932638 0.043437138 -0.66100001 0 0 0 0.0085248584
-0.1920048 0.043437138 -0.66100001 0 0 0 0.0085248584
-0.1907457 0.043437138 -0.66100001 0 0 0 0.0085248584
-0.1894867 0.043437138 -0.66100001 0 0 0 0.0088650472
-0.18822759 0.043437138 -0.66100001 0 0 0 0.0088650472
-0.1872514 0.04350286 -0.66200012 0 0 0 0.0088650472
-0.1862714 0.04356857 -0.66299999 0 0 0 0.0086900359
-0.1850086 0.04356857 -0.66299999 0 0 0 0.0084540984
-0.18430001 0.043699998 -0.66500002 0 0 0 0.0084540984
-0.1824829 0.04356857 -0.66299999 0 0 0 0.0084540984
-0.1817667 0.043699998 -0.66500002 0 0 0 0.0084540984
-0.1805 0.043699998 -0.66500002 0 0 0 0.0086678192
-0.1792333 0.043699998 -0.66500002 0 0 0 0.0086678192
-0.17823429 0.04376572 -0.66600001 0 0 0 0.0086678192
-0.1769657 0.04376572 -0.66600001 0 0 0 0.0082110465
-0.175961 0.04383143 -0.66700011 0 0 0 0.0081764096
-0.26564571 0.03981714 -0.62400001 0 0 0 0.0081764096
-0.2653048 0.039944761 -0.62599999 0 0 0 0.0075810119
-0.2636905 0.03988095 -0.625 0 0 0 0.0073567173
-0.26166001 0.039753329 -0.62300003 0 0 0 0.0073567173
-0.25921911 0.039561901 -0.62 0 0 0 0.0086678192
-0.2580381 0.039561901 -0.62 0 0 0 0.0086678192
-0.25685719 0.039561901 -0.62 0 0 0 0.0082110465
-0.25485149 0.039434291 -0.61799997 0 0 0 0.0080809677
-0.2536743 0.039434291 -0.61799997 0 0 0 0.0078253103
-0.25208861 0.039370481 -0.61699998 0 0 0 0.0077213258
-0.25091341 0.039370481 -0.61699998 0 0 0 0.0073567173
-0.2497381 0.039370481 -0.61699998 0 0 0 0.0073567173
-0.2485629 0.039370481 -0.61699998 0 0 0 0.0073567173
-0.2473876 0.039370481 -0.61699998 0 0 0 0.0071274224
-0.24621239 0.039370481 -0.61699998 0 0 0 0.0082070483
-0.2450372 0.039370481 -0.61699998 0 0 0 0.0080809677
-0.2438619 0.039370481 -0.61699998 0 0 0 0.0080809677
-0.2426867 0.039370481 -0.61699998 0 0 0 0.0080809677
-0.2415114 0.039370481 -0.61699998 0 0 0 0.0077213258
-0.23994669 0.03930667 -0.61600012 0 0 0 0.0075302175
-0.239161 0.039370481 -0.61699998 0 0 0 0.0072464845
-0.2379857 0.039370481 -0.61699998 0 0 0 0.0071274224
-0.23681051 0.039370481 -0.61699998 0 0 0 0.0071274224
-0.2356353 0.039370481 -0.61699998 0 0 0 0.0070357923
-0.23522 0.039498091 -0.61900002 0 0 0 0.0080809677
-0.23404101 0.039498091 -0.61900002 0 0 0 0.0080809677
-0.2332381 0.039561901 -0.62 0 0 0 0.0077213258
-0.23205709 0.039561901 -0.62 0 0 0 0.0071325931
-0.231621 0.03968953 -0.62199998 0 0 0 0.0071325931
-0.23043621 0.03968953 -0.62199998 0 0 0 0.0070357923
-0.22961999 0.039753329 -0.62300003 0 0 0 0.0070357923
-0.2288 0.03981714 -0.62400001 0 0 0 0.0069821039
-0.22761139 0.03981714 -0.62400001 0 0 0 0.0071603302
-0.2267857 0.03988095 -0.625 0 0 0 0.0071325931
-0.22559521 0.03988095 -0.625 0 0 0 0.0071325931
-0.2247638 0.039944761 -0.62599999 0 0 0 0.0070918454
-0.2235714 0.039944761 -0.62599999 0 0 0 0.0070918454
-0.2227343 0.040008571 -0.62699997 0 0 0 0.0069821039
-0.22366001 0.04039143 -0.63300002 0 0 0 0.0072897645
-0.22245429 0.04039143 -0.63300002 0 0 0 0.0072897645
-0.2212486 0.04039143 -0.63300002 0 0 0 0.0075825742
-0.2203905 0.040455241 -0.634 0 0 0 0.0070270025
-0.2191828 0.040455241 -0.634 0 0 0 0.0075363968
-0.2179752 0.040455241 -0.634 0 0 0 0.0075363968
-0.2171095 0.040519051 -0.63500011 0 0 0 0.0073664058
-0.21624 0.040582862 -0.63599998 0 0 0 0.0075418297
-0.2150286 0.040582862 -0.63599998 0 0 0 0.007600938
-0.2144895 0.040710479 -0.63800001 0 0 0 0.0075825742
-0.2139429 0.0408381 -0.63999999 0 0 0 0.0077235168
-0.2147181 0.041220952 -0.64600003 0 0 0 0.0077235168
-0.2138181 0.041284759 -0.64700001 0 0 0 0.0075363968
-0.2125857 0.041284759 -0.64700001 0 0 0 0.0075363968
-0.21233331 0.04147619 -0.64999998 0 0 0 0.0077139577
-0.21142 0.041540001 -0.65100002 0 0 0 0.0077124569
-0.21018 0.041540001 -0.65100002 0 0 0 0.0078587942
-0.20894 0.041540001 -0.65100002 0 0 0 0.0079688104
-0.208019 0.041603811 -0.65200001 0 0 0 0.0077729672
-0.2067771 0.041603811 -0.65200001 0 0 0 0.0077124219
-0.2042743 0.041348569 -0.648 0 0 0 0.0077124219
-0.20304 0.041348569 -0.648 0 0 0 0.0077139577
-0.1963743 0.042305719 -0.66299999 0 0 0 0.0078587942
-0.1948172 0.042241909 -0.66200012 0 0 0 0.0078587942
-0.1932638 0.042178102 -0.66100001 0 0 0 0.0079688104
-0.1920048 0.042178102 -0.66100001 0 0 0 0.0077729672
-0.1910343 0.042241909 -0.66200012 0 0 0 0.0077051879
-0.1897734 0.042241909 -0.66200012 0 0 0 0.0077124219
-0.1885124 0.042241909 -0.66200012 0 0 0 0.0077124219
-0.1875343 0.042305719 -0.66299999 0 0 0 0.0075758533
-0.18683331 0.042433329 -0.66500002 0 0 0 0.0075758533
-0.18556669 0.042433329 -0.66500002 0 0 0 0.0075758533
-0.18457711 0.042497139 -0.66600001 0 0 0 0.0074467557
-0.1833086 0.042497139 -0.66600001 0 0 0 0.0074467557
-0.1823134 0.04256095 -0.66700011 0 0 0 0.0075577623
-0.1807714 0.042497139 -0.66600001 0 0 0 0.0075577623
-0.1795028 0.042497139 -0.66600001 0 0 0 0.0079590976
-0.17823429 0.042497139 -0.66600001 0 0 0 0.0079590976
-0.1769657 0.042497139 -0.66600001 0 0 0 0.0079238731
-0.1756971 0.042497139 -0.66600001 0 0 0 0.0075758533
-0.26734859 0.038876191 -0.62800002 0 0 0 0.0072002923
-0.26572859 0.038814291 -0.62699997 0 0 0 0.0072002923
-0.26411241 0.038752381 -0.62599999 0 0 0 0.0075967545
-0.26208001 0.038628571 -0.62400001 0 0 0 0.0075967545
-0.26047331 0.038566671 -0.62300003 0 0 0 0.0073450874
-0.2580381 0.038380951 -0.62 0 0 0 0.0073290914
-0.25685719 0.038380951 -0.62 0 0 0 0.0079238731
-0.25526381 0.038319051 -0.61900002 0 0 0 0.0079238731
-0.2540848 0.038319051 -0.61900002 0 0 0 0.0072002923
-0.2529057 0.038319051 -0.61900002 0 0 0 0.0072002923
-0.25132 0.038257141 -0.61799997 0 0 0 0.0068965633
-0.2497381 0.038195241 -0.61699998 0 0 0 0.0073450874
-0.2485629 0.038195241 -0.61699998 0 0 0 0.0073290914
-0.2473876 0.038195241 -0.61699998 0 0 0 0.0072813057
-0.24621239 0.038195241 -0.61699998 0 0 0 0.0072813057
-0.2450372 0.038195241 -0.61699998 0 0 0 0.0076922225
-0.2438619 0.038195241 -0.61699998 0 0 0 0.0077740555
-0.2426867 0.038195241 -0.61699998 0 0 0 0.0068965633
-0.2415114 0.038195241 -0.61699998 0 0 0 0.0069388761
-0.24033619 0.038195241 -0.61699998 0 0 0 0.0072015459
-0.239161 0.038195241 -0.61699998 0 0 0 0.0072015459
-0.2379857 0.038195241 -0.61699998 0 0 0 0.0076922225
-0.23757809 0.038319051 -0.61900002 0 0 0 0.0077740555
-0.2367809 0.038380951 -0.62 0 0 0 0.0077740555
-0.23559999 0.038380951 -0.62 0 0 0 0.007786619
-0.234419 0.038380951 -0.62 0 0 0 0.0069388761
