# .PCD v0.7 - Point Cloud Data file format
VERSION 0.7
FIELDS x y z normal_x normal_y normal_z curvature
SIZE 4 4 4 4 4 4 4
TYPE F F F F F F F
COUNT 1 1 1 1 1 1 1
WIDTH 898
HEIGHT 1
VIEWPOINT 0 0 0 1 0 0 0
POINTS 898
DATA ascii
0.1411953 0.01206191 -0.74500012 0 0 0 0.012181608
0.1422314 0.01202952 -0.74299997 0 0 0 0.013810846
0.1434533 0.01201333 -0.74199998 0 0 0 0.014042921
0.14447621 0.01198095 -0.74000001 0 0 0 0.014042921
0.14588571 0.01198095 -0.74000001 0 0 0 0.016581783
0.1470962 0.01196476 -0.73900002 0 0 0 0.0098632639
0.1481019 0.01193238 -0.73699999 0 0 0 0.0098632639
0.1495057 0.01193238 -0.73699999 0 0 0 0.0098632639
0.1507048 0.01191619 -0.73600012 0 0 0 0.010660308
0.1516933 0.01188381 -0.73400003 0 0 0 0.01167099
0.1530914 0.01188381 -0.73400003 0 0 0 0.01312412
0.1544895 0.01188381 -0.73400003 0 0 0 0.014544779
0.15546291 0.01185143 -0.73200011 0 0 0 0.01657916
0.1568571 0.01185143 -0.73200011 0 0 0 0.01657916
0.1582514 0.01185143 -0.73200011 0 0 0 0.01657916
0.15964571 0.01185143 -0.73200011 0 0 0 0.010733251
0.16082001 0.01183524 -0.73100001 0 0 0 0.010733251
0.1622124 0.01183524 -0.73100001 0 0 0 0.010733251
0.16315719 0.01180286 -0.72899997 0 0 0 0.01183817
0.1645457 0.01180286 -0.72899997 0 0 0 0.012741139
0.16570669 0.01178667 -0.72799999 0 0 0 0.01380536
0.1670934 0.01178667 -0.72799999 0 0 0 0.015247799
0.16847999 0.01178667 -0.72799999 0 0 0 0.016548352
0.16940001 0.01175429 -0.72600001 0 0 0 0.016548352
0.17078289 0.01175429 -0.72600001 0 0 0 0.016548352
0.17216571 0.01175429 -0.72600001 0 0 0 0.010733251
0.1733095 0.0117381 -0.72500002 0 0 0 0.012890778
0.1746905 0.0117381 -0.72500002 0 0 0 0.014088316
0.17607141 0.0117381 -0.72500002 0 0 0 0.014088316
0.1774524 0.0117381 -0.72500002 0 0 0 0.017931957
0.17883331 0.0117381 -0.72500002 0 0 0 0.017931957
0.1802143 0.0117381 -0.72500002 0 0 0 0.018271048
0.18159521 0.0117381 -0.72500002 0 0 0 0.018271048
0.1829762 0.0117381 -0.72500002 0 0 0 0.019954942
0.1843572 0.0117381 -0.72500002 0 0 0 0.015372638
0.1857381 0.0117381 -0.72500002 0 0 0 0.015372638
0.1871191 0.0117381 -0.72500002 0 0 0 0.015372638
0.1885 0.0117381 -0.72500002 0 0 0 0.015372638
0.189881 0.0117381 -0.72500002 0 0 0 0.018696263
0.1912619 0.0117381 -0.72500002 0 0 0 0.019663516
0.1926429 0.0117381 -0.72500002 0 0 0 0.020892458
0.1940238 0.0117381 -0.72500002 0 0 0 0.020984823
0.1956743 0.01175429 -0.72600001 0 0 0 0.02155422
0.1970571 0.01175429 -0.72600001 0 0 0 0.016512001
0.19844 0.01175429 -0.72600001 0 0 0 0.016512001
0.1998229 0.01175429 -0.72600001 0 0 0 0.016512001
0.20175999 0.01178667 -0.72799999 0 0 0 0.016512001
0.20342571 0.01180286 -0.72899997 0 0 0 0.020123335
0.20537619 0.01183524 -0.73100001 0 0 0 0.022307875
0.2067686 0.01183524 -0.73100001 0 0 0 0.022559475
0.208161 0.01183524 -0.73100001 0 0 0 0.022059102
0.20984 0.01185143 -0.73200011 0 0 0 0.022828188
0.2112343 0.01185143 -0.73200011 0 0 0 0.022828188
0.2126286 0.01185143 -0.73200011 0 0 0 0.016512001
0.2146076 0.01188381 -0.73400003 0 0 0 0.016512001
0.21659429 0.01191619 -0.73600012 0 0 0 0.019081526
0.2188848 0.01196476 -0.73900002 0 0 0 0.023321459
0.2211867 0.01201333 -0.74199998 0 0 0 0.023321459
0.2226 0.01201333 -0.74199998 0 0 0 0.024889475
0.2240133 0.01201333 -0.74199998 0 0 0 0.024889475
0.2254267 0.01201333 -0.74199998 0 0 0 0.025857097
0.22684 0.01201333 -0.74199998 0 0 0 0.024933673
0.228561 0.01202952 -0.74299997 0 0 0 0.01637556
0.22997621 0.01202952 -0.74299997 0 0 0 0.01637556
0.23108 0.01201333 -0.74199998 0 0 0 0.023262415
0.1220171 0.01122857 -0.78600001 0 0 0 0.029024573
0.1235143 0.01122857 -0.78600001 0 0 0 0.029420648
0.1240572 0.01114286 -0.77999997 0 0 0 0.029420648
0.12554289 0.01114286 -0.77999997 0 0 0 0.029812224
0.1262143 0.01107143 -0.77499998 0 0 0 0.028515724
0.127361 0.01104286 -0.77300012 0 0 0 0.028515724
0.1283333 0.011 -0.76999998 0 0 0 0.02021808
0.1294629 0.01097143 -0.76800001 0 0 0 0.02021808
0.13007329 0.0109 -0.76300001 0 0 0 0.033033278
0.1310095 0.01085714 -0.76000011 0 0 0 0.033033278
0.1321086 0.01082857 -0.75800002 0 0 0 0.033033278
0.1332 0.0108 -0.75599998 0 0 0 0.034150518
0.13446189 0.01078571 -0.75500011 0 0 0 0.033185054
0.13553999 0.01075714 -0.75300002 0 0 0 0.031469587
0.13679241 0.01074286 -0.75199997 0 0 0 0.031469587
0.1382248 0.01074286 -0.75199997 0 0 0 0.031183809
0.1389143 0.01068571 -0.74800003 0 0 0 0.034811448
0.1401514 0.01067143 -0.74699998 0 0 0 0.034811448
0.1411953 0.01064286 -0.74500012 0 0 0 0.034811448
0.1422314 0.01061429 -0.74299997 0 0 0 0.037042584
0.1436467 0.01061429 -0.74299997 0 0 0 0.036191449
0.1448667 0.0106 -0.74199998 0 0 0 0.035427034
0.14588571 0.01057143 -0.74000001 0 0 0 0.035427034
0.14729521 0.01057143 -0.74000001 0 0 0 0.033395715
0.1481019 0.01052857 -0.73699999 0 0 0 0.033395715
0.1495057 0.01052857 -0.73699999 0 0 0 0.040317144
0.1509095 0.01052857 -0.73699999 0 0 0 0.040149253
0.1521067 0.01051429 -0.73600012 0 0 0 0.039548256
0.1535086 0.01051429 -0.73600012 0 0 0 0.038801074
0.1544895 0.01048571 -0.73400003 0 0 0 0.037004139
0.1558876 0.01048571 -0.73400003 0 0 0 0.037004139
0.15728571 0.01048571 -0.73400003 0 0 0 0.034042981
0.15868381 0.01048571 -0.73400003 0 0 0 0.040736731
0.15964571 0.01045714 -0.73200011 0 0 0 0.041760936
0.16103999 0.01045714 -0.73200011 0 0 0 0.041897103
0.1622124 0.01044286 -0.73100001 0 0 0 0.040179361
0.1636048 0.01044286 -0.73100001 0 0 0 0.039562851
0.1645457 0.01041429 -0.72899997 0 0 0 0.039426856
0.16593429 0.01041429 -0.72899997 0 0 0 0.039426856
0.1673229 0.01041429 -0.72899997 0 0 0 0.036999136
0.16847999 0.0104 -0.72799999 0 0 0 0.043055203
0.1698667 0.0104 -0.72799999 0 0 0 0.043055203
0.17078289 0.01037143 -0.72600001 0 0 0 0.043410856
0.17216571 0.01037143 -0.72600001 0 0 0 0.04212473
0.17354859 0.01037143 -0.72600001 0 0 0 0.041913729
0.17493141 0.01037143 -0.72600001 0 0 0 0.041913729
0.17631429 0.01037143 -0.72600001 0 0 0 0.039426856
0.17769711 0.01037143 -0.72600001 0 0 0 0.039426856
0.17907999 0.01037143 -0.72600001 0 0 0 0.051240832
0.1802143 0.01035714 -0.72500002 0 0 0 0.051240832
0.18159521 0.01035714 -0.72500002 0 0 0 0.044902243
0.1829762 0.01035714 -0.72500002 0 0 0 0.044902243
0.1843572 0.01035714 -0.72500002 0 0 0 0.044902243
0.1857381 0.01035714 -0.72500002 0 0 0 0.045729391
0.1873771 0.01037143 -0.72600001 0 0 0 0.043697268
0.18876 0.01037143 -0.72600001 0 0 0 0.044533201
0.1901429 0.01037143 -0.72600001 0 0 0 0.044533201
0.1915257 0.01037143 -0.72600001 0 0 0 0.048909172
0.1929086 0.01037143 -0.72600001 0 0 0 0.051240832
0.1942914 0.01037143 -0.72600001 0 0 0 0.051240832
0.1962133 0.0104 -0.72799999 0 0 0 0.051240832
0.19760001 0.0104 -0.72799999 0 0 0 0.046143398
0.19898669 0.0104 -0.72799999 0 0 0 0.046143398
0.20064861 0.01041429 -0.72899997 0 0 0 0.046143398
0.2020371 0.01041429 -0.72899997 0 0 0 0.048643857
0.2039838 0.01044286 -0.73100001 0 0 0 0.048643857
0.20537619 0.01044286 -0.73100001 0 0 0 0.049098816
0.2067686 0.01044286 -0.73100001 0 0 0 0.051802907
0.2084457 0.01045714 -0.73200011 0 0 0 0.048909172
0.20984 0.01045714 -0.73200011 0 0 0 0.051240832
0.21181139 0.01048571 -0.73400003 0 0 0 0.051240832
0.21320949 0.01048571 -0.73400003 0 0 0 0.051240832
0.21519241 0.01051429 -0.73600012 0 0 0 0.039839983
0.21688861 0.01052857 -0.73699999 0 0 0 0.046498846
0.219181 0.01057143 -0.74000001 0 0 0 0.046498846
0.2211867 0.0106 -0.74199998 0 0 0 0.049649782
0.2226 0.0106 -0.74199998 0 0 0 0.051311512
0.2243152 0.01061429 -0.74299997 0 0 0 0.053684004
0.22573049 0.01061429 -0.74299997 0 0 0 0.052436341
0.2271457 0.01061429 -0.74299997 0 0 0 0.053017017
0.228561 0.01061429 -0.74299997 0 0 0 0.051971387
0.22997621 0.01061429 -0.74299997 0 0 0 0.051240832
0.1220171 0.0097314287 -0.78600001 0 0 0 0.051240832
0.1235143 0.0097314287 -0.78600001 0 0 0 0.036928311
0.1238981 0.0096447626 -0.77899998 0 0 0 0.046397433
0.1253819 0.0096447626 -0.77899998 0 0 0 0.048620906
0.1262143 0.0095952386 -0.77499998 0 0 0 0.051311512
0.127361 0.0095704766 -0.77300012 0 0 0 0.052540909
0.1283333 0.0095333336 -0.76999998 0 0 0 0.053684004
0.1294629 0.0095085716 -0.76800001 0 0 0 0.054118767
0.1307552 0.0094961906 -0.76700002 0 0 0 0.054700308
0.1311819 0.0094219064 -0.76099998 0 0 0 0.055372071
0.13245711 0.0094095254 -0.76000011 0 0 0 0.055989373
0.1332 0.0093599996 -0.75599998 0 0 0 0.055147897
0.13446189 0.0093476186 -0.75500011 0 0 0 0.048620906
0.13553999 0.0093228566 -0.75300002 0 0 0 0.048620906
0.1369743 0.0093228566 -0.75300002 0 0 0 0.052540909
0.1382248 0.0093104756 -0.75199997 0 0 0 0.052540909
0.1392857 0.0092857154 -0.75000012 0 0 0 0.057020452
0.1401514 0.0092485705 -0.74699998 0 0 0 0.057020452
0.14157429 0.0092485705 -0.74699998 0 0 0 0.058900706
0.14261431 0.0092238085 -0.74500012 0 0 0 0.057120934
0.1436467 0.0091990475 -0.74299997 0 0 0 0.057106182
0.1450619 0.0091990475 -0.74299997 0 0 0 0.057106182
0.14628001 0.0091866674 -0.74199998 0 0 0 0.048620906
0.14729521 0.0091619045 -0.74000001 0 0 0 0.052540909
0.1485038 0.0091495244 -0.73900002 0 0 0 0.059345204
0.1499114 0.0091495244 -0.73900002 0 0 0 0.059345204
0.1509095 0.0091247624 -0.73699999 0 0 0 0.058741115
0.1523134 0.0091247624 -0.73699999 0 0 0 0.061313193
0.1535086 0.0091123814 -0.73600012 0 0 0 0.061627202
0.1549105 0.0091123814 -0.73600012 0 0 0 0.060503855
0.15631241 0.0091123814 -0.73600012 0 0 0 0.060503855
0.15771431 0.0091123814 -0.73600012 0 0 0 0.048620906
0.15911619 0.0091123814 -0.73600012 0 0 0 0.067208908
0.16008189 0.0090876194 -0.73400003 0 0 0 0.062423073
0.16103999 0.0090628574 -0.73200011 0 0 0 0.062423073
0.16243429 0.0090628574 -0.73200011 0 0 0 0.065034971
0.1638286 0.0090628574 -0.73200011 0 0 0 0.065034971
0.1649971 0.0090504764 -0.73100001 0 0 0 0.064693846
0.1663895 0.0090504764 -0.73100001 0 0 0 0.063298374
0.1673229 0.0090257144 -0.72899997 0 0 0 0.063298374
0.16871139 0.0090257144 -0.72899997 0 0 0 0.089187063
0.1701 0.0090257144 -0.72899997 0 0 0 0.089187063
0.17125329 0.0090133343 -0.72799999 0 0 0 0.089187063
0.17264 0.0090133343 -0.72799999 0 0 0 0.062079214
0.1740267 0.0090133343 -0.72799999 0 0 0 0.065034971
0.1754133 0.0090133343 -0.72799999 0 0 0 0.065169781
0.17631429 0.0089885714 -0.72600001 0 0 0 0.066606961
0.17769711 0.0089885714 -0.72600001 0 0 0 0.066606961
0.17907999 0.0089885714 -0.72600001 0 0 0 0.066606961
0.1804629 0.0089885714 -0.72600001 0 0 0 0.089187063
0.18184569 0.0089885714 -0.72600001 0 0 0 0.089187063
0.1832286 0.0089885714 -0.72600001 0 0 0 0.089187063
0.1846114 0.0089885714 -0.72600001 0 0 0 0.089187063
0.1859943 0.0089885714 -0.72600001 0 0 0 0.068585247
0.1873771 0.0089885714 -0.72600001 0 0 0 0.075223625
0.18876 0.0089885714 -0.72600001 0 0 0 0.075223625
0.19066671 0.0090133343 -0.72799999 0 0 0 0.066838942
0.1920533 0.0090133343 -0.72799999 0 0 0 0.066838942
0.19344001 0.0090133343 -0.72799999 0 0 0 0.089187063
0.19482671 0.0090133343 -0.72799999 0 0 0 0.089187063
0.1964829 0.0090257144 -0.72899997 0 0 0 0.089187063
0.1978714 0.0090257144 -0.72899997 0 0 0 0.089187063
0.19926 0.0090257144 -0.72899997 0 0 0 0.089187063
0.20064861 0.0090257144 -0.72899997 0 0 0 0.075223625
0.2025914 0.0090504764 -0.73100001 0 0 0 0.075223625
0.2039838 0.0090504764 -0.73100001 0 0 0 0.075223625
0.20537619 0.0090504764 -0.73100001 0 0 0 0.066838942
0.2070514 0.0090628574 -0.73200011 0 0 0 0.095884025
0.20901521 0.0090876194 -0.73400003 0 0 0 0.095884025
0.21041331 0.0090876194 -0.73400003 0 0 0 0.095884025
0.2123886 0.0091123814 -0.73600012 0 0 0 0.095884025
0.214081 0.0091247624 -0.73699999 0 0 0 0.095884025
0.2160695 0.0091495244 -0.73900002 0 0 0 0.075223625
0.2177714 0.0091619045 -0.74000001 0 0 0 0.075223625
0.21977331 0.0091866674 -0.74199998 0 0 0 0.095884025
0.2214848 0.0091990475 -0.74299997 0 0 0 0.095884025
0.2229 0.0091990475 -0.74299997 0 0 0 0.095884025
0.2243152 0.0091990475 -0.74299997 0 0 0 0.095884025
0.2263381 0.0092238085 -0.74500012 0 0 0 0.095884025
0.2277572 0.0092238085 -0.74500012 0 0 0 0.095884025
0.22917619 0.0092238085 -0.74500012 0 0 0 0.095884025
0.22997621 0.0091990475 -0.74299997 0 0 0 0.095884025
0.1223276 0.0082552386 -0.78799999 0 0 0 0.095884025
0.1235143 0.0082342857 -0.78600001 0 0 0 0.095884025
0.1240572 0.008171428 -0.77999997 0 0 0 0.095884025
0.12506001 0.0081399996 -0.77700001 0 0 0 0.095884025
0.1262143 0.0081190476 -0.77499998 0 0 0 0.095884025
0.127361 0.0080980957 -0.77300012 0 0 0 0.095884025
0.1283333 0.0080666672 -0.76999998 0 0 0 0.095884025
0.1294629 0.0080457143 -0.76800001 0 0 0 0.095884025
0.1307552 0.0080352379 -0.76700002 0 0 0 0.095884025
0.1311819 0.0079723811 -0.76099998 0 0 0 0.011755478
0.13245711 0.0079619056 -0.76000011 0 0 0 0.011755478
0.1335524 0.0079409527 -0.75800002 0 0 0 0.010636125
0.13463999 0.0079199998 -0.75599998 0 0 0 0.0084325168
0.13590001 0.0079095243 -0.75500011 0 0 0 0.0084325168
0.1369743 0.0078885714 -0.75300002 0 0 0 0.0084325168
0.1384086 0.0078885714 -0.75300002 0 0 0 0.0084325168
0.1392857 0.0078571439 -0.75000012 0 0 0 0.0077323541
0.140339 0.007836191 -0.74800003 0 0 0 0.011755478
0.14157429 0.0078257145 -0.74699998 0 0 0 0.011755478
0.1429971 0.0078257145 -0.74699998 0 0 0 0.010636125
0.1440333 0.007804763 -0.74500012 0 0 0 0.010636125
0.1454524 0.007804763 -0.74500012 0 0 0 0.0084325168
0.1464771 0.0077838101 -0.74299997 0 0 0 0.0083578266
0.14769331 0.0077733342 -0.74199998 0 0 0 0.0077323541
0.1487048 0.0077523808 -0.74000001 0 0 0 0.0077323541
0.1501143 0.0077523808 -0.74000001 0 0 0 0.011755478
0.1513191 0.0077419048 -0.73900002 0 0 0 0.011755478
0.15272669 0.0077419048 -0.73900002 0 0 0 0.010636125
0.1541343 0.0077419048 -0.73900002 0 0 0 0.010636125
0.155121 0.0077209529 -0.73699999 0 0 0 0.0087721627
0.15652481 0.0077209529 -0.73699999 0 0 0 0.0082205813
0.15771431 0.0077104769 -0.73600012 0 0 0 0.0077323541
0.15911619 0.0077104769 -0.73600012 0 0 0 0.0077323541
0.16008189 0.007689524 -0.73400003 0 0 0 0.0077323541
0.16147999 0.007689524 -0.73400003 0 0 0 0.011755478
0.16243429 0.007668572 -0.73200011 0 0 0 0.011755478
0.1638286 0.007668572 -0.73200011 0 0 0 0.012435138
0.1652229 0.007668572 -0.73200011 0 0 0 0.0095625753
0.1663895 0.007658096 -0.73100001 0 0 0 0.0088080298
0.1677819 0.007658096 -0.73100001 0 0 0 0.0082205813
0.16871139 0.0076371431 -0.72899997 0 0 0 0.0077323541
0.1701 0.0076371431 -0.72899997 0 0 0 0.0077323541
0.17125329 0.0076266672 -0.72799999 0 0 0 0.007821369
0.17264 0.0076266672 -0.72799999 0 0 0 0.0070830919
0.1740267 0.0076266672 -0.72799999 0 0 0 0.014819381
0.1754133 0.0076266672 -0.72799999 0 0 0 0.014819381
0.17631429 0.0076057138 -0.72600001 0 0 0 0.0090279141
0.17769711 0.0076057138 -0.72600001 0 0 0 0.0090279141
0.17907999 0.0076057138 -0.72600001 0 0 0 0.0086522065
0.1804629 0.0076057138 -0.72600001 0 0 0 0.0086522065
0.18184569 0.0076057138 -0.72600001 0 0 0 0.0082256803
0.1832286 0.0076057138 -0.72600001 0 0 0 0.0074274717
0.1846114 0.0076057138 -0.72600001 0 0 0 0.0070830919
0.1859943 0.0076057138 -0.72600001 0 0 0 0.0070830919
0.1878933 0.0076266672 -0.72799999 0 0 0 0.014819381
0.18928 0.0076266672 -0.72799999 0 0 0 0.014819381
0.19066671 0.0076266672 -0.72799999 0 0 0 0.011996838
0.1923172 0.0076371431 -0.72899997 0 0 0 0.011996838
0.19370569 0.0076371431 -0.72899997 0 0 0 0.0090078078
0.1950943 0.0076371431 -0.72899997 0 0 0 0.0084082205
0.1964829 0.0076371431 -0.72899997 0 0 0 0.0080933413
0.1978714 0.0076371431 -0.72899997 0 0 0 0.0070830919
0.19926 0.0076371431 -0.72899997 0 0 0 0.0070830919
0.2011991 0.007658096 -0.73100001 0 0 0 0.007045411
0.2025914 0.007658096 -0.73100001 0 0 0 0.0067989472
0.2042629 0.007668572 -0.73200011 0 0 0 0.011996838
0.2056572 0.007668572 -0.73200011 0 0 0 0.011996838
0.2070514 0.007668572 -0.73200011 0 0 0 0.010371584
0.20901521 0.007689524 -0.73400003 0 0 0 0.0081102597
0.2109867 0.0077104769 -0.73600012 0 0 0 0.0079995701
0.2126772 0.0077209529 -0.73699999 0 0 0 0.0073569003
0.2146619 0.0077419048 -0.73900002 0 0 0 0.007045411
0.2163619 0.0077523808 -0.74000001 0 0 0 0.0068734926
0.21836001 0.0077733342 -0.74199998 0 0 0 0.0068734926
0.2200695 0.0077838101 -0.74299997 0 0 0 0.0068734926
0.22208101 0.007804763 -0.74500012 0 0 0 0.011996838
0.2235 0.007804763 -0.74500012 0 0 0 0.010371584
0.22552291 0.0078257145 -0.74699998 0 0 0 0.010371584
0.2278572 0.0078571439 -0.75000012 0 0 0 0.0086788451
0.2292857 0.0078571439 -0.75000012 0 0 0 0.0082285469
0.23071431 0.0078571439 -0.75000012 0 0 0 0.0074190395
0.12358 0.00666 -0.77700001 0 0 0 0.0068734926
0.12506001 0.00666 -0.77700001 0 0 0 0.0068734926
0.1262143 0.006642858 -0.77499998 0 0 0 0.0068734926
0.127361 0.0066257152 -0.77300012 0 0 0 0.0068734926
0.1286667 0.0066171428 -0.77200001 0 0 0 0.009513963
0.1294629 0.0065828571 -0.76800001 0 0 0 0.009513963
0.1307552 0.0065742861 -0.76700002 0 0 0 0.009513963
0.1311819 0.006522858 -0.76099998 0 0 0 0.0082331616
0.13245711 0.0065142862 -0.76000011 0 0 0 0.0075379591
0.1335524 0.0064971428 -0.75800002 0 0 0 0.0071823359
0.13463999 0.00648 -0.75599998 0 0 0 0.0071823359
0.13590001 0.006471429 -0.75500011 0 0 0 0.0071823359
0.1373381 0.006471429 -0.75500011 0 0 0 0.0066190925
0.1384086 0.0064542862 -0.75300002 0 0 0 0.006600094
0.1396571 0.0064457138 -0.75199997 0 0 0 0.010126135
0.140339 0.006411429 -0.74800003 0 0 0 0.0085107852
0.14176381 0.006411429 -0.74800003 0 0 0 0.0085107852
0.1429971 0.0064028581 -0.74699998 0 0 0 0.0079932585
0.1440333 0.0063857152 -0.74500012 0 0 0 0.0079932585
0.1454524 0.0063857152 -0.74500012 0 0 0 0.0073001068
0.1468714 0.0063857152 -0.74500012 0 0 0 0.0072109923
0.1478924 0.006368571 -0.74299997 0 0 0 0.0068731997
0.1487048 0.0063428571 -0.74000001 0 0 0 0.0068731997
0.1501143 0.0063428571 -0.74000001 0 0 0 0.006600094
0.1515238 0.0063428571 -0.74000001 0 0 0 0.0064253956
0.15272669 0.0063342862 -0.73900002 0 0 0 0.0094775585
0.1541343 0.0063342862 -0.73900002 0 0 0 0.0094775585
0.1555419 0.0063342862 -0.73900002 0 0 0 0.0079932585
0.15652481 0.0063171429 -0.73699999 0 0 0 0.0074514104
0.1579286 0.0063171429 -0.73699999 0 0 0 0.0074213496
0.15933239 0.0063171429 -0.73699999 0 0 0 0.0071102735
0.16008189 0.006291429 -0.73400003 0 0 0 0.0068731997
0.16147999 0.006291429 -0.73400003 0 0 0 0.006600094
0.1628781 0.006291429 -0.73400003 0 0 0 0.0064253956
0.1638286 0.0062742862 -0.73200011 0 0 0 0.0064253956
0.1652229 0.0062742862 -0.73200011 0 0 0 0.0060475585
0.1666172 0.0062742862 -0.73200011 0 0 0 0.0094775585
0.1680114 0.0062742862 -0.73200011 0 0 0 0.0094775585
0.1691743 0.0062657138 -0.73100001 0 0 0 0.008098254
0.17056669 0.0062657138 -0.73100001 0 0 0 0.0076056472
0.1714886 0.0062485719 -0.72899997 0 0 0 0.0075178789
0.17264 0.00624 -0.72799999 0 0 0 0.0070192954
0.1740267 0.00624 -0.72799999 0 0 0 0.0069686742
0.1754133 0.00624 -0.72799999 0 0 0 0.0065987101
0.1768 0.00624 -0.72799999 0 0 0 0.0065987101
0.1781867 0.00624 -0.72799999 0 0 0 0.0065987101
0.1795733 0.00624 -0.72799999 0 0 0 0.0060280762
0.18096 0.00624 -0.72799999 0 0 0 0.009654019
0.1823467 0.00624 -0.72799999 0 0 0 0.0080736205
0.1837333 0.00624 -0.72799999 0 0 0 0.0080736205
0.18512 0.00624 -0.72799999 0 0 0 0.0075589796
0.1865067 0.00624 -0.72799999 0 0 0 0.0072834045
0.1881514 0.0062485719 -0.72899997 0 0 0 0.006918563
0.18954 0.0062485719 -0.72899997 0 0 0 0.0065987101
0.19092859 0.0062485719 -0.72899997 0 0 0 0.0065987101
0.19284479 0.0062657138 -0.73100001 0 0 0 0.0061376086
0.19370569 0.0062485719 -0.72899997 0 0 0 0.0060280762
0.19562951 0.0062657138 -0.73100001 0 0 0 0.0058579687
0.1970219 0.0062657138 -0.73100001 0 0 0 0.0088624898
0.1984143 0.0062657138 -0.73100001 0 0 0 0.0088624898
0.19980671 0.0062657138 -0.73100001 0 0 0 0.0075028017
0.2011991 0.0062657138 -0.73100001 0 0 0 0.0073841093
0.2025914 0.0062657138 -0.73100001 0 0 0 0.0073841093
0.2042629 0.0062742862 -0.73200011 0 0 0 0.0066922363
0.2056572 0.0062742862 -0.73200011 0 0 0 0.0062074326
0.2076171 0.006291429 -0.73400003 0 0 0 0.0062074326
0.20901521 0.006291429 -0.73400003 0 0 0 0.0058579687
0.2112734 0.0063171429 -0.73699999 0 0 0 0.0058579687
0.2132543 0.0063342862 -0.73900002 0 0 0 0.0088624898
0.21495239 0.0063428571 -0.74000001 0 0 0 0.0081190933
0.21694671 0.00636 -0.74199998 0 0 0 0.0081190933
0.2186543 0.006368571 -0.74299997 0 0 0 0.0070345956
0.22066189 0.0063857152 -0.74500012 0 0 0 0.0069773141
0.22208101 0.0063857152 -0.74500012 0 0 0 0.0065000039
0.22409999 0.0064028581 -0.74699998 0 0 0 0.0055630202
0.2264286 0.0064285719 -0.75000012 0 0 0 0.0055630202
0.2284648 0.0064457138 -0.75199997 0 0 0 0.0055630202
0.2302029 0.0064542862 -0.75300002 0 0 0 0.0055765733
0.23163719 0.0064542862 -0.75300002 0 0 0 0.0098340269
0.12358 0.0051799999 -0.77700001 0 0 0 0.0081190933
0.12506001 0.0051799999 -0.77700001 0 0 0 0.0081190933
0.1262143 0.005166667 -0.77499998 0 0 0 0.00757859
0.127361 0.0051533328 -0.77300012 0 0 0 0.00757859
0.1286667 0.0051466669 -0.77200001 0 0 0 0.0061987462
0.12980001 0.0051333341 -0.76999998 0 0 0 0.0056496118
0.1309257 0.0051199999 -0.76800001 0 0 0 0.0056496118
0.1311819 0.0050733341 -0.76099998 0 0 0 0.0053183632
0.13245711 0.0050666672 -0.76000011 0 0 0 0.0053242506
0.1335524 0.005053333 -0.75800002 0 0 0 0.0053242506
0.13499621 0.005053333 -0.75800002 0 0 0 0.0098340269
0.13608 0.0050400002 -0.75599998 0 0 0 0.0083223321
0.1373381 0.0050333338 -0.75500011 0 0 0 0.00757859
0.1384086 0.00502 -0.75300002 0 0 0 0.00757859
0.1396571 0.0050133341 -0.75199997 0 0 0 0.006540936
0.1407143 0.0049999999 -0.75000012 0 0 0 0.006540936
0.14176381 0.0049866671 -0.74800003 0 0 0 0.0057982774
0.1429971 0.0049800002 -0.74699998 0 0 0 0.0053183632
0.14442 0.0049800002 -0.74699998 0 0 0 0.0053183632
0.1454524 0.0049666669 -0.74500012 0 0 0 0.0053242506
0.1468714 0.0049666669 -0.74500012 0 0 0 0.0051138187
0.1478924 0.0049533341 -0.74299997 0 0 0 0.010481074
0.14930759 0.0049533341 -0.74299997 0 0 0 0.00757859
0.1501143 0.004933333 -0.74000001 0 0 0 0.0065789088
0.1515238 0.004933333 -0.74000001 0 0 0 0.0065789088
0.1529333 0.004933333 -0.74000001 0 0 0 0.0060750628
0.1543429 0.004933333 -0.74000001 0 0 0 0.0057197404
0.1555419 0.0049266671 -0.73900002 0 0 0 0.005286145
0.15694951 0.0049266671 -0.73900002 0 0 0 0.0053316583
0.1583571 0.0049266671 -0.73900002 0 0 0 0.0051138187
0.15933239 0.0049133338 -0.73699999 0 0 0 0.0051138187
0.1607362 0.0049133338 -0.73699999 0 0 0 0.0055406066
0.16147999 0.0048933332 -0.73400003 0 0 0 0.0071629845
0.1628781 0.0048933332 -0.73400003 0 0 0 0.0071629845
0.1642762 0.0048933332 -0.73400003 0 0 0 0.0061928243
0.1652229 0.0048799999 -0.73200011 0 0 0 0.0061938767
0.1666172 0.0048799999 -0.73200011 0 0 0 0.0057884175
0.1680114 0.0048799999 -0.73200011 0 0 0 0.0053914492
0.1694057 0.0048799999 -0.73200011 0 0 0 0.0055079022
0.17056669 0.004873333 -0.73100001 0 0 0 0.0055406066
0.1714886 0.0048600002 -0.72899997 0 0 0 0.0055406066
0.1728771 0.0048600002 -0.72899997 0 0 0 0.004935679
0.1742657 0.0048600002 -0.72899997 0 0 0 0.0042228946
0.17565431 0.0048600002 -0.72899997 0 0 0 0.0071629845
0.1770429 0.0048600002 -0.72899997 0 0 0 0.0068972898
0.17843141 0.0048600002 -0.72899997 0 0 0 0.0068972898
0.17982 0.0048600002 -0.72899997 0 0 0 0.0062438729
0.1812086 0.0048600002 -0.72899997 0 0 0 0.0059049483
0.1825971 0.0048600002 -0.72899997 0 0 0 0.0055079022
0.1839857 0.0048600002 -0.72899997 0 0 0 0.0055406066
0.1853743 0.0048600002 -0.72899997 0 0 0 0.0055406066
0.1867629 0.0048600002 -0.72899997 0 0 0 0.004935679
0.1881514 0.0048600002 -0.72899997 0 0 0 0.004935679
0.19006 0.004873333 -0.73100001 0 0 0 0.0043192445
0.1914524 0.004873333 -0.73100001 0 0 0 0.0079076793
0.19284479 0.004873333 -0.73100001 0 0 0 0.0079076793
0.1942371 0.004873333 -0.73100001 0 0 0 0.0079076793
0.19562951 0.004873333 -0.73100001 0 0 0 0.0074834316
0.1970219 0.004873333 -0.73100001 0 0 0 0.0074834316
0.1984143 0.004873333 -0.73100001 0 0 0 0.0058211163
0.19980671 0.004873333 -0.73100001 0 0 0 0.0057492098
0.20147429 0.0048799999 -0.73200011 0 0 0 0.004935679
0.2028686 0.0048799999 -0.73200011 0 0 0 0.004935679
0.2042629 0.0048799999 -0.73200011 0 0 0 0.0043192445
0.20621911 0.0048933332 -0.73400003 0 0 0 0.0044907825
0.2076171 0.0048933332 -0.73400003 0 0 0 0.0074834316
0.2095848 0.0049066669 -0.73600012 0 0 0 0.0074834316
0.2112734 0.0049133338 -0.73699999 0 0 0 0.0074834316
0.2132543 0.0049266671 -0.73900002 0 0 0 0.0067110737
0.21495239 0.004933333 -0.74000001 0 0 0 0.0067110737
0.2172391 0.0049533341 -0.74299997 0 0 0 0.0060166609
0.2192429 0.0049666669 -0.74500012 0 0 0 0.0058113616
0.2212543 0.0049800002 -0.74699998 0 0 0 0.0056735026
0.2226771 0.0049800002 -0.74699998 0 0 0 0.0052721859
0.2244 0.0049866671 -0.74800003 0 0 0 0.0044907825
0.22703239 0.0050133341 -0.75199997 0 0 0 0.0044907825
0.2287686 0.00502 -0.75300002 0 0 0 0.0074834316
0.2302029 0.00502 -0.75300002 0 0 0 0.0074834316
0.23163719 0.00502 -0.75300002 0 0 0 0.0074834316
0.12358 0.0037 -0.77700001 0 0 0 0.0072451415
0.12506001 0.0037 -0.77700001 0 0 0 0.0065047243
0.1262143 0.0036904761 -0.77499998 0 0 0 0.0061392728
0.127361 0.0036809531 -0.77300012 0 0 0 0.0062707462
0.12883329 0.0036809531 -0.77300012 0 0 0 0.0060541253
0.1301371 0.003676191 -0.77200001 0 0 0 0.0060541253
0.1312667 0.003666667 -0.76999998 0 0 0 0.004846035
0.1311819 0.0036238099 -0.76099998 0 0 0 0.004846035
0.13245711 0.003619048 -0.76000011 0 0 0 0.0048969206
0.1335524 0.0036095241 -0.75800002 0 0 0 0.0096017737
0.13499621 0.0036095241 -0.75800002 0 0 0 0.0082934918
0.13608 0.0035999999 -0.75599998 0 0 0 0.0074329781
0.1373381 0.0035952381 -0.75500011 0 0 0 0.0074329781
0.1384086 0.0035857139 -0.75300002 0 0 0 0.0070330831
0.1396571 0.003580953 -0.75199997 0 0 0 0.0066127838
0.1407143 0.0035714291 -0.75000012 0 0 0 0.0061683417
0.14176381 0.0035619049 -0.74800003 0 0 0 0.0056193215
0.1429971 0.003557143 -0.74699998 0 0 0 0.0056193215
0.14442 0.003557143 -0.74699998 0 0 0 0.005212368
0.1454524 0.0035476191 -0.74500012 0 0 0 0.005212368
0.1468714 0.0035476191 -0.74500012 0 0 0 0.0074329781
0.1482905 0.0035476191 -0.74500012 0 0 0 0.0074329781
0.14930759 0.0035380949 -0.74299997 0 0 0 0.0078558037
0.1501143 0.0035238101 -0.74000001 0 0 0 0.007097661
0.1515238 0.0035238101 -0.74000001 0 0 0 0.0067358166
0.1529333 0.0035238101 -0.74000001 0 0 0 0.0063472441
0.1543429 0.0035238101 -0.74000001 0 0 0 0.0060834815
0.1555419 0.003519048 -0.73900002 0 0 0 0.0054252623
0.15694951 0.003519048 -0.73900002 0 0 0 0.005212368
0.1583571 0.003519048 -0.73900002 0 0 0 0.005212368
0.1597648 0.003519048 -0.73900002 0 0 0 0.005212368
0.1607362 0.003509524 -0.73699999 0 0 0 0.0084858174
0.16192 0.003504762 -0.73600012 0 0 0 0.0084858174
0.1628781 0.003495238 -0.73400003 0 0 0 0.0086966865
0.1642762 0.003495238 -0.73400003 0 0 0 0.0069500208
0.1656743 0.003495238 -0.73400003 0 0 0 0.0064806663
0.1666172 0.003485715 -0.73200011 0 0 0 0.0065573566
0.1680114 0.003485715 -0.73200011 0 0 0 0.0059063123
0.1694057 0.003485715 -0.73200011 0 0 0 0.0055760061
0.1708 0.003485715 -0.73200011 0 0 0 0.0056537315
0.1721943 0.003485715 -0.73200011 0 0 0 0.0056635975
0.1728771 0.003471429 -0.72899997 0 0 0 0.0059585292
0.1747438 0.003480952 -0.73100001 0 0 0 0.01047542
0.1761362 0.003480952 -0.73100001 0 0 0 0.0094565898
0.1770429 0.003471429 -0.72899997 0 0 0 0.0076713259
0.17843141 0.003471429 -0.72899997 0 0 0 0.0076713259
0.17982 0.003471429 -0.72899997 0 0 0 0.0068636835
0.1812086 0.003471429 -0.72899997 0 0 0 0.0068636835
0.1825971 0.003471429 -0.72899997 0 0 0 0.0062384349
0.1844905 0.003480952 -0.73100001 0 0 0 0.0058272127
0.1858829 0.003480952 -0.73100001 0 0 0 0.0056635975
0.1872752 0.003480952 -0.73100001 0 0 0 0.0058063739
0.1886676 0.003480952 -0.73100001 0 0 0 0.0060065705
0.19006 0.003480952 -0.73100001 0 0 0 0.0076713259
0.1914524 0.003480952 -0.73100001 0 0 0 0.0076203011
0.19284479 0.003480952 -0.73100001 0 0 0 0.0076203011
0.1942371 0.003480952 -0.73100001 0 0 0 0.0069188937
0.19562951 0.003480952 -0.73100001 0 0 0 0.0062806052
0.1972914 0.003485715 -0.73200011 0 0 0 0.0059264735
0.19868571 0.003485715 -0.73200011 0 0 0 0.0060941433
0.20008001 0.003485715 -0.73200011 0 0 0 0.0060065705
0.20147429 0.003485715 -0.73200011 0 0 0 0.0060065705
0.2028686 0.003485715 -0.73200011 0 0 0 0.0062497342
0.20482101 0.003495238 -0.73400003 0 0 0 0.0062497342
0.20621911 0.003495238 -0.73400003 0 0 0 0.0076203011
0.2081829 0.003504762 -0.73600012 0 0 0 0.0076203011
0.2098695 0.003509524 -0.73699999 0 0 0 0.0076452242
0.2112734 0.003509524 -0.73699999 0 0 0 0.0073344484
0.2132543 0.003519048 -0.73900002 0 0 0 0.0073344484
0.2155333 0.003533334 -0.74199998 0 0 0 0.0064759273
0.2172391 0.0035380949 -0.74299997 0 0 0 0.0061741751
0.2192429 0.0035476191 -0.74500012 0 0 0 0.0061741751
0.2212543 0.003557143 -0.74699998 0 0 0 0.0061844396
0.22297519 0.0035619049 -0.74800003 0 0 0 0.0062497342
0.22499999 0.0035714291 -0.75000012 0 0 0 0.0062497342
0.22703239 0.003580953 -0.75199997 0 0 0 0.01066455
0.2287686 0.0035857139 -0.75300002 0 0 0 0.0082436362
0.23081429 0.0035952381 -0.75500011 0 0 0 0.0082436362
0.2322524 0.0035952381 -0.75500011 0 0 0 0.0082436362
0.1247381 0.002214286 -0.77499998 0 0 0 0.0073889447
0.1262143 0.002214286 -0.77499998 0 0 0 0.0064337729
0.12769049 0.002214286 -0.77499998 0 0 0 0.0061844396
0.12883329 0.0022085721 -0.77300012 0 0 0 0.0061844396
0.1301371 0.0022057139 -0.77200001 0 0 0 0.0063211247
0.1312667 0.0022 -0.76999998 0 0 0 0.0063211247
0.1311819 0.0021742859 -0.76099998 0 0 0 0.0063481461
0.13245711 0.0021714291 -0.76000011 0 0 0 0.01128023
0.1335524 0.002165715 -0.75800002 0 0 0 0.0091232937
0.13499621 0.002165715 -0.75800002 0 0 0 0.0091232937
0.13608 0.0021599999 -0.75599998 0 0 0 0.0091232937
0.1373381 0.0021571431 -0.75500011 0 0 0 0.0073889447
0.1384086 0.002151429 -0.75300002 0 0 0 0.0069568232
0.1396571 0.002148571 -0.75199997 0 0 0 0.0065433271
0.1407143 0.0021428571 -0.75000012 0 0 0 0.0065382728
0.14176381 0.0021371429 -0.74800003 0 0 0 0.0065382728
0.1431886 0.0021371429 -0.74800003 0 0 0 0.0067095426
0.14442 0.0021342861 -0.74699998 0 0 0 0.0067095426
0.14584289 0.0021342861 -0.74699998 0 0 0 0.0064399634
0.1468714 0.002128572 -0.74500012 0 0 0 0.0099018905
0.1482905 0.002128572 -0.74500012 0 0 0 0.0099018905
0.14930759 0.0021228569 -0.74299997 0 0 0 0.0091499304
0.15052 0.0021200001 -0.74199998 0 0 0 0.0091499304
0.1515238 0.0021142859 -0.74000001 0 0 0 0.0074633462
0.1529333 0.0021142859 -0.74000001 0 0 0 0.0069596358
0.1543429 0.0021142859 -0.74000001 0 0 0 0.0068271873
0.15575241 0.0021142859 -0.74000001 0 0 0 0.0067095426
0.15694951 0.0021114291 -0.73900002 0 0 0 0.0067095426
0.1583571 0.0021114291 -0.73900002 0 0 0 0.0070270523
0.1597648 0.0021114291 -0.73900002 0 0 0 0.0070270523
0.1607362 0.002105715 -0.73699999 0 0 0 0.0072943601
0.16192 0.002102857 -0.73600012 0 0 0 0.0091499304
0.1628781 0.0020971431 -0.73400003 0 0 0 0.0091499304
0.1642762 0.0020971431 -0.73400003 0 0 0 0.0087612513
0.1656743 0.0020971431 -0.73400003 0 0 0 0.0075927591
0.1670724 0.0020971431 -0.73400003 0 0 0 0.0076708705
0.1684705 0.0020971431 -0.73400003 0 0 0 0.0073815198
0.1694057 0.002091429 -0.73200011 0 0 0 0.0072790743
0.1708 0.002091429 -0.73200011 0 0 0 0.0071713924
0.1721943 0.002091429 -0.73200011 0 0 0 0.0071713924
0.17335141 0.002088571 -0.73100001 0 0 0 0.0072079292
0.1747438 0.002088571 -0.73100001 0 0 0 0.0072943601
0.1761362 0.002088571 -0.73100001 0 0 0 0.0072943601
0.1775286 0.002088571 -0.73100001 0 0 0 0.0098185902
0.178921 0.002088571 -0.73100001 0 0 0 0.0098185902
0.1803133 0.002088571 -0.73100001 0 0 0 0.0082336413
0.1817057 0.002088571 -0.73100001 0 0 0 0.0082336413
0.18309809 0.002088571 -0.73100001 0 0 0 0.0080867717
0.1844905 0.002088571 -0.73100001 0 0 0 0.0072762161
0.1858829 0.002088571 -0.73100001 0 0 0 0.0071713924
0.1872752 0.002088571 -0.73100001 0 0 0 0.0072079292
0.1886676 0.002088571 -0.73100001 0 0 0 0.0072079292
0.19006 0.002088571 -0.73100001 0 0 0 0.0072796675
0.1917143 0.002091429 -0.73200011 0 0 0 0.0072943601
0.1931086 0.002091429 -0.73200011 0 0 0 0.0098185902
0.19450291 0.002091429 -0.73200011 0 0 0 0.0084416643
0.19589721 0.002091429 -0.73200011 0 0 0 0.0084416643
0.1972914 0.002091429 -0.73200011 0 0 0 0.0081451992
0.19868571 0.002091429 -0.73200011 0 0 0 0.0077565848
0.20008001 0.002091429 -0.73200011 0 0 0 0.0077795004
0.20147429 0.002091429 -0.73200011 0 0 0 0.0072079292
0.2034229 0.0020971431 -0.73400003 0 0 0 0.0072796675
0.20482101 0.0020971431 -0.73400003 0 0 0 0.0072811376
0.206781 0.002102857 -0.73600012 0 0 0 0.0074553997
0.2084657 0.002105715 -0.73699999 0 0 0 0.0078758914
0.2098695 0.002105715 -0.73699999 0 0 0 0.0086268336
0.2112734 0.002105715 -0.73699999 0 0 0 0.0086268336
0.2132543 0.0021114291 -0.73900002 0 0 0 0.0086268336
0.21495239 0.0021142859 -0.74000001 0 0 0 0.0082537197
0.2172391 0.0021228569 -0.74299997 0 0 0 0.0083633279
0.2192429 0.002128572 -0.74500012 0 0 0 0.0080878912
0.22155049 0.0021371429 -0.74800003 0 0 0 0.007843012
0.2235714 0.0021428571 -0.75000012 0 0 0 0.0074919425
0.2256 0.002148571 -0.75199997 0 0 0 0.0075347037
0.22733431 0.002151429 -0.75300002 0 0 0 0.0075347037
0.2293762 0.0021571431 -0.75500011 0 0 0 0.0082268221
0.23112001 0.0021599999 -0.75599998 0 0 0 0.0084939748
0.23255999 0.0021599999 -0.75599998 0 0 0 0.0086268336
0.1262143 0.00073809532 -0.77499998 0 0 0 0.0083157886
0.127361 0.00073619047 -0.77300012 0 0 0 0.0084735807
0.12883329 0.00073619047 -0.77300012 0 0 0 0.0084735807
0.1301371 0.00073523808 -0.77200001 0 0 0 0.0084735807
0.1312667 0.00073333329 -0.76999998 0 0 0 0.0083872555
0.13152669 0.00072666671 -0.76300001 0 0 0 0.0075347037
0.13245711 0.00072380959 -0.76000011 0 0 0 0.0075347037
0.1339048 0.00072380959 -0.76000011 0 0 0 0.0075347037
0.13499621 0.0007219048 -0.75800002 0 0 0 0.0082268221
0.13608 0.00072000001 -0.75599998 0 0 0 0.0087283123
0.13752 0.00072000001 -0.75599998 0 0 0 0.0087283123
0.1387762 0.00071904768 -0.75500011 0 0 0 0.0085134413
0.1398429 0.00071714289 -0.75300002 0 0 0 0.0081305923
0.1410895 0.00071619049 -0.75199997 0 0 0 0.0084735807
0.14214291 0.00071428582 -0.75000012 0 0 0 0.0084735807
0.1431886 0.00071238098 -0.74800003 0 0 0 0.0084755439
0.14442 0.00071142858 -0.74699998 0 0 0 0.0084755439
0.14584289 0.00071142858 -0.74699998 0 0 0 0.0078976108
0.1472657 0.00071142858 -0.74699998 0 0 0 0.007817355
0.1482905 0.00070952391 -0.74500012 0 0 0 0.0077258064
0.14970949 0.00070952391 -0.74500012 0 0 0 0.0087283123
0.15052 0.00070666667 -0.74199998 0 0 0 0.0087283123
0.1519333 0.00070666667 -0.74199998 0 0 0 0.0087283123
0.1529333 0.00070476189 -0.74000001 0 0 0 0.0095062954
0.1543429 0.00070476189 -0.74000001 0 0 0 0.008360872
0.15575241 0.00070476189 -0.74000001 0 0 0 0.008360872
0.15716191 0.00070476189 -0.74000001 0 0 0 0.008360872
0.1583571 0.00070380961 -0.73900002 0 0 0 0.008367233
0.1597648 0.00070380961 -0.73900002 0 0 0 0.0076983199
0.1611724 0.00070380961 -0.73900002 0 0 0 0.0078506544
0.16214 0.00070190482 -0.73699999 0 0 0 0.0077258064
0.1633219 0.00070095243 -0.73600012 0 0 0 0.0087283123
0.1647238 0.00070095243 -0.73600012 0 0 0 0.0087283123
0.1656743 0.00069904758 -0.73400003 0 0 0 0.0091625582
0.1670724 0.00069904758 -0.73400003 0 0 0 0.010038754
0.1684705 0.00069904758 -0.73400003 0 0 0 0.008360872
0.1698686 0.00069904758 -0.73400003 0 0 0 0.008360872
0.1712667 0.00069904758 -0.73400003 0 0 0 0.0082784295
0.1721943 0.00069714291 -0.73200011 0 0 0 0.008367233
0.17335141 0.00069619052 -0.73100001 0 0 0 0.0076983199
0.17498291 0.00069714291 -0.73200011 0 0 0 0.0078127757
0.1763771 0.00069714291 -0.73200011 0 0 0 0.0078488439
0.1775286 0.00069619052 -0.73100001 0 0 0 0.0086882273
0.178921 0.00069619052 -0.73100001 0 0 0 0.0086882273
0.1803133 0.00069619052 -0.73100001 0 0 0 0.0093716253
0.1817057 0.00069619052 -0.73100001 0 0 0 0.0096563809
0.18309809 0.00069619052 -0.73100001 0 0 0 0.0082784295
0.1847429 0.00069714291 -0.73200011 0 0 0 0.0082784295
0.1861372 0.00069714291 -0.73200011 0 0 0 0.0074754972
0.1875314 0.00069714291 -0.73200011 0 0 0 0.0073101157
0.1889257 0.00069714291 -0.73200011 0 0 0 0.0078946464
0.19032 0.00069714291 -0.73200011 0 0 0 0.0079023791
0.1917143 0.00069714291 -0.73200011 0 0 0 0.008231584
0.1931086 0.00069714291 -0.73200011 0 0 0 0.0086503085
0.19450291 0.00069714291 -0.73200011 0 0 0 0.0086503085
0.19589721 0.00069714291 -0.73200011 0 0 0 0.0099378638
0.1972914 0.00069714291 -0.73200011 0 0 0 0.010096873
0.19868571 0.00069714291 -0.73200011 0 0 0 0.010096873
0.20008001 0.00069714291 -0.73200011 0 0 0 0.0071769557
0.2020248 0.00069904758 -0.73400003 0 0 0 0.0071769557
0.2034229 0.00069904758 -0.73400003 0 0 0 0.0069635157
0.2053791 0.00070095243 -0.73600012 0 0 0 0.0069635157
0.206781 0.00070095243 -0.73600012 0 0 0 0.0078662904
0.2084657 0.00070190482 -0.73699999 0 0 0 0.0078662904
0.2098695 0.00070190482 -0.73699999 0 0 0 0.0082366262
0.21184669 0.00070380961 -0.73900002 0 0 0 0.0082366262
0.2132543 0.00070380961 -0.73900002 0 0 0 0.0093898689
0.2155333 0.00070666667 -0.74199998 0 0 0 0.0092731584
0.2178238 0.00070952391 -0.74500012 0 0 0 0.0092060352
0.21983141 0.00071142858 -0.74699998 0 0 0 0.0092060352
0.2221429 0.00071428582 -0.75000012 0 0 0 0.0074036657
0.2235714 0.00071428582 -0.75000012 0 0 0 0.0070078461
0.2256 0.00071619049 -0.75199997 0 0 0 0.0070078461
0.2279381 0.00071904768 -0.75500011 0 0 0 0.0071213054
0.22968 0.00072000001 -0.75599998 0 0 0 0.0073931608
0.23112001 0.00072000001 -0.75599998 0 0 0 0.0077755982
0.23255999 0.00072000001 -0.75599998 0 0 0 0.0081362436
0.1244162 -0.00073619047 -0.77300012 0 0 0 0.0092731584
0.1258886 -0.00073619047 -0.77300012 0 0 0 0.0092060352
0.127361 -0.00073619047 -0.77300012 0 0 0 0.0092060352
0.1286667 -0.00073523808 -0.77200001 0 0 0 0.0092060352
0.1301371 -0.00073523808 -0.77200001 0 0 0 0.0070078461
0.1312667 -0.00073333329 -0.76999998 0 0 0 0.0070078461
0.13152669 -0.00072666671 -0.76300001 0 0 0 0.0070078461
0.13245711 -0.00072380959 -0.76000011 0 0 0 0.006838358
0.1339048 -0.00072380959 -0.76000011 0 0 0 0.0074160849
0.13499621 -0.0007219048 -0.75800002 0 0 0 0.0079903044
0.13643999 -0.0007219048 -0.75800002 0 0 0 0.0079100998
0.13752 -0.00072000001 -0.75599998 0 0 0 0.0088172751
0.13896 -0.00072000001 -0.75599998 0 0 0 0.0092060352
0.14021429 -0.00071904768 -0.75500011 0 0 0 0.0092060352
0.1410895 -0.00071619049 -0.75199997 0 0 0 0.009444749
0.14214291 -0.00071428582 -0.75000012 0 0 0 0.010766054
0.14357141 -0.00071428582 -0.75000012 0 0 0 0.0073793484
0.1446133 -0.00071238098 -0.74800003 0 0 0 0.0068304851
0.14584289 -0.00071142858 -0.74699998 0 0 0 0.0069159288
0.1472657 -0.00071142858 -0.74699998 0 0 0 0.0076761567
0.1486886 -0.00071142858 -0.74699998 0 0 0 0.0076761567
0.14970949 -0.00070952391 -0.74500012 0 0 0 0.0081830369
0.15052 -0.00070666667 -0.74199998 0 0 0 0.0085425805
0.1519333 -0.00070666667 -0.74199998 0 0 0 0.0090178354
0.1529333 -0.00070476189 -0.74000001 0 0 0 0.009444749
0.1543429 -0.00070476189 -0.74000001 0 0 0 0.009444749
0.15575241 -0.00070476189 -0.74000001 0 0 0 0.010343322
0.15716191 -0.00070476189 -0.74000001 0 0 0 0.0071598548
0.15857141 -0.00070476189 -0.74000001 0 0 0 0.0071060956
0.159981 -0.00070476189 -0.74000001 0 0 0 0.0071060956
0.1611724 -0.00070380961 -0.73900002 0 0 0 0.0072598988
0.16214 -0.00070190482 -0.73699999 0 0 0 0.0084152874
0.16354381 -0.00070190482 -0.73699999 0 0 0 0.008529189
0.1649476 -0.00070190482 -0.73699999 0 0 0 0.0093580196
0.1661257 -0.00070095243 -0.73600012 0 0 0 0.0099752881
0.1675276 -0.00070095243 -0.73600012 0 0 0 0.0098540252
0.1684705 -0.00069904758 -0.73400003 0 0 0 0.010455242
0.1698686 -0.00069904758 -0.73400003 0 0 0 0.011795088
0.1712667 -0.00069904758 -0.73400003 0 0 0 0.0064506843
0.17266481 -0.00069904758 -0.73400003 0 0 0 0.0072105723
0.1735886 -0.00069714291 -0.73200011 0 0 0 0.0072105723
0.17498291 -0.00069714291 -0.73200011 0 0 0 0.0085803447
0.1763771 -0.00069714291 -0.73200011 0 0 0 0.0085803447
0.1777714 -0.00069714291 -0.73200011 0 0 0 0.0094259214
0.17916571 -0.00069714291 -0.73200011 0 0 0 0.0098540252
0.18055999 -0.00069714291 -0.73200011 0 0 0 0.010455242
0.18195429 -0.00069714291 -0.73200011 0 0 0 0.011795088
0.1833486 -0.00069714291 -0.73200011 0 0 0 0.011795088
0.1847429 -0.00069714291 -0.73200011 0 0 0 0.012286944
0.1861372 -0.00069714291 -0.73200011 0 0 0 0.0072105723
0.1875314 -0.00069714291 -0.73200011 0 0 0 0.0072105723
0.1889257 -0.00069714291 -0.73200011 0 0 0 0.0072105723
0.19032 -0.00069714291 -0.73200011 0 0 0 0.0083216717
0.1917143 -0.00069714291 -0.73200011 0 0 0 0.0089744898
0.1931086 -0.00069714291 -0.73200011 0 0 0 0.0096279243
0.1950343 -0.00069904758 -0.73400003 0 0 0 0.010234671
0.1964324 -0.00069904758 -0.73400003 0 0 0 0.010069843
0.1978305 -0.00069904758 -0.73400003 0 0 0 0.011356521
0.1992286 -0.00069904758 -0.73400003 0 0 0 0.012079496
0.2006267 -0.00069904758 -0.73400003 0 0 0 0.012915856
0.2025753 -0.00070095243 -0.73600012 0 0 0 0.0068502901
0.2039772 -0.00070095243 -0.73600012 0 0 0 0.0076453616
0.20565809 -0.00070190482 -0.73699999 0 0 0 0.0076453616
0.2070619 -0.00070190482 -0.73699999 0 0 0 0.0091891754
0.2084657 -0.00070190482 -0.73699999 0 0 0 0.0099503631
0.2104391 -0.00070380961 -0.73900002 0 0 0 0.0099503631
0.21184669 -0.00070380961 -0.73900002 0 0 0 0.010344945
0.2132543 -0.00070380961 -0.73900002 0 0 0 0.011896697
0.2155333 -0.00070666667 -0.74199998 0 0 0 0.012790157
0.2184086 -0.00071142858 -0.74699998 0 0 0 0.012790157
0.21983141 -0.00071142858 -0.74699998 0 0 0 0.012790157
0.2221429 -0.00071428582 -0.75000012 0 0 0 0.0076453616
0.2241676 -0.00071619049 -0.75199997 0 0 0 0.0076453616
0.22589999 -0.00071714289 -0.75300002 0 0 0 0.0085053472
0.22733431 -0.00071714289 -0.75300002 0 0 0 0.0091700666
0.22968 -0.00072000001 -0.75599998 0 0 0 0.0091700666
0.23112001 -0.00072000001 -0.75599998 0 0 0 0.010589504
0.23255999 -0.00072000001 -0.75599998 0 0 0 0.010773421
0.1283333 -0.0022 -0.76999998 0 0 0 0.011762033
0.12980001 -0.0022 -0.76999998 0 0 0 0.012790157
0.1312667 -0.0022 -0.76999998 0 0 0 0.012790157
0.13238861 -0.0021942861 -0.76800001 0 0 0 0.012790157
0.13263141 -0.0021742859 -0.76099998 0 0 0 0.0074197114
0.1339048 -0.0021714291 -0.76000011 0 0 0 0.0093444325
0.1353524 -0.0021714291 -0.76000011 0 0 0 0.0093444325
0.13643999 -0.002165715 -0.75800002 0 0 0 0.0099919001
0.1378838 -0.002165715 -0.75800002 0 0 0 0.011121803
0.13896 -0.0021599999 -0.75599998 0 0 0 0.0116963
0.14021429 -0.0021571431 -0.75500011 0 0 0 0.013301875
0.1410895 -0.002148571 -0.75199997 0 0 0 0.013301875
0.1425219 -0.002148571 -0.75199997 0 0 0 0.013907192
0.14357141 -0.0021428571 -0.75000012 0 0 0 0.013907192
0.1446133 -0.0021371429 -0.74800003 0 0 0 0.0093444325
0.14584289 -0.0021342861 -0.74699998 0 0 0 0.010253323
0.1472657 -0.0021342861 -0.74699998 0 0 0 0.010253323
0.1486886 -0.0021342861 -0.74699998 0 0 0 0.011578292
0.14970949 -0.002128572 -0.74500012 0 0 0 0.012337502
0.15072291 -0.0021228569 -0.74299997 0 0 0 0.013371211
0.1519333 -0.0021200001 -0.74199998 0 0 0 0.013644885
0.1533467 -0.0021200001 -0.74199998 0 0 0 0.014329218
0.15476 -0.0021200001 -0.74199998 0 0 0 0.016284896
0.15575241 -0.0021142859 -0.74000001 0 0 0 0.016284896
0.15716191 -0.0021142859 -0.74000001 0 0 0 0.0097660935
0.15857141 -0.0021142859 -0.74000001 0 0 0 0.0097660935
0.159981 -0.0021142859 -0.74000001 0 0 0 0.0097660935
0.1613905 -0.0021142859 -0.74000001 0 0 0 0.012089934
0.16258 -0.0021114291 -0.73900002 0 0 0 0.012679316
0.16398761 -0.0021114291 -0.73900002 0 0 0 0.01352124
0.1649476 -0.002105715 -0.73699999 0 0 0 0.014329218
0.16635139 -0.002105715 -0.73699999 0 0 0 0.014329218
0.1675276 -0.002102857 -0.73600012 0 0 0 0.016383024
0.1689295 -0.002102857 -0.73600012 0 0 0 0.016383024
0.1703314 -0.002102857 -0.73600012 0 0 0 0.0098632639
0.1717333 -0.002102857 -0.73600012 0 0 0 0.0098632639
0.17266481 -0.0020971431 -0.73400003 0 0 0 0.010660308
0.1735886 -0.002091429 -0.73200011 0 0 0 0.012679316
0.17498291 -0.002091429 -0.73200011 0 0 0 0.012679316
0.1763771 -0.002091429 -0.73200011 0 0 0 0.014159617
0.1777714 -0.002091429 -0.73200011 0 0 0 0.015500494
0.17916571 -0.002091429 -0.73200011 0 0 0 0.016581783
0.18055999 -0.002091429 -0.73200011 0 0 0 0.016581783
0.18195429 -0.002091429 -0.73200011 0 0 0 0.018117156
0.1833486 -0.002091429 -0.73200011 0 0 0 0.0098632639
0.1847429 -0.002091429 -0.73200011 0 0 0 0.010660308
0.1861372 -0.002091429 -0.73200011 0 0 0 0.012679316
0.1875314 -0.002091429 -0.73200011 0 0 0 0.014159617
0.1889257 -0.002091429 -0.73200011 0 0 0 0.015247799
0.19032 -0.002091429 -0.73200011 0 0 0 0.016184477
0.1917143 -0.002091429 -0.73200011 0 0 0 0.01807918
0.19363619 -0.0020971431 -0.73400003 0 0 0 0.019299537
0.1950343 -0.0020971431 -0.73400003 0 0 0 0.019299537
0.1969676 -0.002102857 -0.73600012 0 0 0 0.014088316
0.1983695 -0.002102857 -0.73600012 0 0 0 0.014088316
0.1997714 -0.002102857 -0.73600012 0 0 0 0.017931957
0.20117339 -0.002102857 -0.73600012 0 0 0 0.017931957
0.2025753 -0.002102857 -0.73600012 0 0 0 0.019584609
0.2042543 -0.002105715 -0.73699999 0 0 0 0.019954942
0.20565809 -0.002105715 -0.73699999 0 0 0 0.019954942
0.20762379 -0.0021114291 -0.73900002 0 0 0 0.019346062
0.2093143 -0.0021142859 -0.74000001 0 0 0 0.019346062
0.2107238 -0.0021142859 -0.74000001 0 0 0 0.015372638
0.2127067 -0.0021200001 -0.74199998 0 0 0 0.015372638
0.21440861 -0.0021228569 -0.74299997 0 0 0 0.018897843
0.2158238 -0.0021228569 -0.74299997 0 0 0 0.018897843
0.2184086 -0.0021342861 -0.74699998 0 0 0 0.020573299
0.2207143 -0.0021428571 -0.75000012 0 0 0 0.021242509
0.2227352 -0.002148571 -0.75199997 0 0 0 0.020688606
0.2244657 -0.002151429 -0.75300002 0 0 0 0.020406824
0.2265 -0.0021571431 -0.75500011 0 0 0 0.020406824
0.22824 -0.0021599999 -0.75599998 0 0 0 0.015372638
0.22968 -0.0021599999 -0.75599998 0 0 0 0.022307875
0.23112001 -0.0021599999 -0.75599998 0 0 0 0.022307875
0.23255999 -0.0021599999 -0.75599998 0 0 0 0.022307875
0.12929431 -0.003652381 -0.76700002 0 0 0 0.021947168
0.1307552 -0.003652381 -0.76700002 0 0 0 0.021904824
0.1322162 -0.003652381 -0.76700002 0 0 0 0.021904824
0.13298 -0.0036333329 -0.76300001 0 0 0 0.021904824
0.13408101 -0.0036238099 -0.76099998 0 0 0 0.016512001
0.1353524 -0.003619048 -0.76000011 0 0 0 0.023066644
0.13680001 -0.003619048 -0.76000011 0 0 0 0.023066644
0.1378838 -0.0036095241 -0.75800002 0 0 0 0.023066644
0.1393276 -0.0036095241 -0.75800002 0 0 0 0.024851982
0.14040001 -0.0035999999 -0.75599998 0 0 0 0.024224266
0.1412771 -0.0035857139 -0.75300002 0 0 0 0.024933673
0.1425219 -0.003580953 -0.75199997 0 0 0 0.024933673
0.14395431 -0.003580953 -0.75199997 0 0 0 0.019081526
0.145 -0.0035714291 -0.75000012 0 0 0 0.023321459
0.1460381 -0.0035619049 -0.74800003 0 0 0 0.029420648
0.1474629 -0.0035619049 -0.74800003 0 0 0 0.029420648
0.1486886 -0.003557143 -0.74699998 0 0 0 0.027304256
0.15011141 -0.003557143 -0.74699998 0 0 0 0.028515724
0.15112861 -0.0035476191 -0.74500012 0 0 0 0.028515724
0.1521381 -0.0035380949 -0.74299997 0 0 0 0.028515724
0.1533467 -0.003533334 -0.74199998 0 0 0 0.033033278
0.15476 -0.003533334 -0.74199998 0 0 0 0.033033278
0.1561733 -0.003533334 -0.74199998 0 0 0 0.034150518
0.15758669 -0.003533334 -0.74199998 0 0 0 0.032296959
0.15899999 -0.003533334 -0.74199998 0 0 0 0.031469587
0.159981 -0.0035238101 -0.74000001 0 0 0 0.031469587
0.1613905 -0.0035238101 -0.74000001 0 0 0 0.027922645
0.1628 -0.0035238101 -0.74000001 0 0 0 0.034811448
0.16398761 -0.003519048 -0.73900002 0 0 0 0.034811448
0.1653952 -0.003519048 -0.73900002 0 0 0 0.035827748
0.16635139 -0.003509524 -0.73699999 0 0 0 0.03543622
0.1677552 -0.003509524 -0.73699999 0 0 0 0.035427034
0.1691591 -0.003509524 -0.73699999 0 0 0 0.035427034
0.1703314 -0.003504762 -0.73600012 0 0 0 0.030215641
0.1717333 -0.003504762 -0.73600012 0 0 0 0.034811448
0.1731353 -0.003504762 -0.73600012 0 0 0 0.040149253
0.17406289 -0.003495238 -0.73400003 0 0 0 0.038239837
0.17546099 -0.003495238 -0.73400003 0 0 0 0.038239837
0.1768591 -0.003495238 -0.73400003 0 0 0 0.037004139
0.1782572 -0.003495238 -0.73400003 0 0 0 0.037004139
0.17965519 -0.003495238 -0.73400003 0 0 0 0.032938965
0.1810533 -0.003495238 -0.73400003 0 0 0 0.041760936
0.1824514 -0.003495238 -0.73400003 0 0 0 0.04212473
