# .PCD v0.7 - Point Cloud Data file format
VERSION 0.7
FIELDS x y z normal_x normal_y normal_z curvature
SIZE 4 4 4 4 4 4 4
TYPE F F F F F F F
COUNT 1 1 1 1 1 1 1
WIDTH 582
HEIGHT 1
VIEWPOINT 0 0 0 1 0 0 0
POINTS 582
DATA ascii
-0.1199095 0.081280947 -0.84500003 -0.73847169 -0.3924973 0.54827487 0.01233756
-0.12510698 0.092527941 -0.84116668 -0.67294061 -0.45055932 0.58664066 0.016111394
-0.093898579 0.038430952 -0.83200002 -0.73687243 -0.4247719 0.52591616 0.0011686052
-0.03086571 0.037988573 -0.83099997 0.61413598 -0.49062863 0.61815906 0.0019444715
-0.029353339 0.03887333 -0.83300012 0.62785077 -0.47879449 0.6136443 0.001586177
-0.10176285 0.047288027 -0.83757144 -0.80897653 -0.36841771 0.458067 0.070602439
-0.096687153 0.044019528 -0.83280009 -0.75215876 -0.35043418 0.55807984 0.01366713
-0.03086571 0.040362861 -0.83099997 0.57240343 -0.51918584 0.63466555 0.06876526
-0.024595652 0.043984395 -0.83317393 0.63235581 -0.47968352 0.60830086 0.0013058078
-0.018216548 0.046784762 -0.83625001 0.61644882 -0.4822416 0.62244189 0.0019798628
-0.10477237 0.055431914 -0.8355 -0.80671269 -0.38182855 0.45102286 0.05379948
-0.014522287 0.055092894 -0.83513331 0.59915948 -0.46594238 0.65108031 0.0064330664
-0.0082568265 0.059395876 -0.83899999 0.56036901 -0.51671684 0.64729452 0.018482469
-0.11141076 0.06670817 -0.83814281 -0.76883316 -0.35527968 0.53166896 0.013315203
-0.10748097 0.064554296 -0.83242869 -0.80391026 -0.33674267 0.49023739 0.0093568945
-0.011737334 0.062973335 -0.83280003 0.57159525 -0.49272057 0.656129 0.011999006
-0.0053051435 0.065882489 -0.83620012 0.55334026 -0.50531137 0.6621744 0.015866112
0.00079904759 0.066320963 -0.83899999 0.51069129 -0.53726953 0.67121959 0.022046875
0.01036286 0.069351427 -0.83700001 0.4556118 -0.542418 0.70583314 0.024012661
-0.11291684 0.075803727 -0.83610004 -0.76221877 -0.37841567 0.52518964 0.011912385
-0.10826574 0.07244058 -0.83220005 -0.78467238 -0.35743311 0.50648856 0.0096305078
-0.0035654758 0.073689699 -0.83275002 0.53254354 -0.4907051 0.68964183 0.01436251
0.0043972833 0.075202942 -0.83648139 0.46899262 -0.52112824 0.7130717 0.020542113
0.010371113 0.072597787 -0.83766669 0.43892345 -0.53909165 0.71883678 0.025219845
-0.11659314 0.084290572 -0.83457899 -0.74363708 -0.38811311 0.54440063 0.015118296
-0.0007933334 0.080126673 -0.83300012 0.51326323 -0.49271134 0.7027064 0.020164238
0.003369048 0.080846429 -0.83225006 0.50163186 -0.48508847 0.71627831 0.021432135
-0.13077751 0.092156827 -0.83899993 -0.64554113 -0.47415403 0.59871083 0.017490141
-0.12463857 0.095479906 -0.83620006 -0.68241996 -0.44124174 0.5827595 0.013434606
-0.11907355 0.094253443 -0.83166665 -0.71915281 -0.41432789 0.55780977 0.01358106
-0.12521228 0.10541549 -0.83524007 -0.65487564 -0.4527961 0.60507327 0.018696528
-0.1400829 0.1115914 -0.83099997 -0.44141811 -0.503456 0.74275303 0.025251683
-0.13177285 0.11357 -0.83099997 -0.59011239 -0.42248261 0.68795043 0.024286482
-0.12804572 0.11060283 -0.8325001 -0.60255665 -0.44038957 0.66556925 0.018626766
-0.090795241 0.037897147 -0.82900012 -0.72810125 -0.4302372 0.53363335 0.0010098271
-0.086494982 0.035725806 -0.82354558 -0.67789507 -0.49728492 0.54144818 0.0062480993
-0.043473471 0.033750616 -0.8214286 0.59352988 -0.50468618 0.62690848 0.058678567
-0.036846306 0.037300549 -0.82500017 0.59377503 -0.50008744 0.63035214 0.071522273
-0.092992336 0.045942549 -0.82513338 -0.74869657 -0.38504341 0.53962481 0.01196353
-0.088570483 0.042166665 -0.82299995 -0.72488785 -0.43488005 0.5342443 0.0010033139
-0.033528961 0.044513077 -0.8239333 0.59687889 -0.51185238 0.61785334 0.045171257
-0.026784763 0.047564648 -0.82725 0.62427503 -0.4720819 0.62243021 0.0013524513
-0.10075524 0.056920197 -0.8278001 -0.77941906 -0.35800552 0.51413798 0.0086861206
-0.097380877 0.054631285 -0.82407695 -0.76766527 -0.36922553 0.52379626 0.0083962092
-0.031119814 0.052074861 -0.82100004 0.59950364 -0.50589466 0.62021452 0.036773495
-0.024511306 0.054305837 -0.82326657 0.63267756 -0.46395043 0.62005579 0.0011417748
-0.018752955 0.056576192 -0.82740003 0.63385421 -0.4655357 0.61766118 0.0014455796
-0.10283395 0.064919882 -0.82499999 -0.78395092 -0.35718796 0.50777715 0.0072175493
-0.099382542 0.061819367 -0.82166666 -0.77571732 -0.36563423 0.51436788 0.0068021207
-0.021558234 0.063557699 -0.82100004 0.63815892 -0.45337349 0.62225848 0.0013039177
-0.016109737 0.065645196 -0.82550013 0.58177406 -0.49251932 0.64727402 0.010225068
-0.10605834 0.074897736 -0.82562506 -0.79495978 -0.35267535 0.49361828 0.0081381025
-0.013621606 0.073810548 -0.82343739 0.58524013 -0.45756179 0.66942602 0.011641107
-0.0066273948 0.07691513 -0.82758832 0.56102037 -0.46350145 0.68587357 0.015868098
0.0081352396 0.077155873 -0.82666671 0.48117176 -0.49634111 0.72257823 0.026503043
0.01023286 0.07714048 -0.82650006 0.48108023 -0.49657154 0.72248077 0.028117051
-0.11223131 0.085824631 -0.82571435 -0.77756339 -0.37070158 0.50791287 0.0091529535
-0.10861456 0.083278239 -0.82385719 -0.78281236 -0.36908203 0.50098222 0.0089663602
-0.0044296919 0.084690802 -0.82476473 0.54485035 -0.44867295 0.70840007 0.013898961
0.004932737 0.085723005 -0.82862532 0.47618026 -0.45833907 0.75045162 0.020262966
0.010253906 0.084399812 -0.82820004 0.4376381 -0.47253624 0.76497209 0.02420486
-0.11490092 0.094952531 -0.82542104 -0.7554909 -0.39667666 0.52142221 0.0079235686
-0.0018782858 0.092688575 -0.82200003 0.5628314 -0.41621777 0.7141313 0.013090006
0.0044018282 0.095042698 -0.8255406 0.51167232 -0.41656908 0.75143981 0.013931273
-0.13173811 0.1086905 -0.82499999 -0.66409546 -0.38937807 0.6382491 0.022994004
-0.12144093 0.10803302 -0.82800007 -0.70353025 -0.38746133 0.59575075 0.014950678
-0.11784242 0.10380813 -0.82530773 -0.72056162 -0.40122652 0.56551588 0.013962473
0.0046203472 0.10228736 -0.82100004 0.51926655 -0.41530713 0.74691516 0.01388854
-0.13452175 0.11452949 -0.82699996 -0.5404405 -0.43919706 0.71765596 0.020561734
-0.12537792 0.11506496 -0.82437503 -0.69631469 -0.37671763 0.6109252 0.016713507
-0.11972857 0.1119019 -0.82166666 -0.72176749 -0.35952023 0.59143627 0.014740906
-0.13278574 0.12021431 -0.82499999 -0.59532344 -0.43307978 0.67678058 0.021932494
-0.12782381 0.12123374 -0.82340002 -0.66728318 -0.40409532 0.62565172 0.017715817
-0.073418349 0.027658969 -0.81425011 -0.3935768 -0.67458928 0.62452108 0.065172449
-0.064938344 0.026284048 -0.81175011 -0.027958939 -0.68880939 0.72440314 0.0938434
-0.055744156 0.027819388 -0.81464309 0.31404492 -0.64474553 0.69690669 0.065297164
-0.082244866 0.035772577 -0.81752652 -0.57543862 -0.58238274 0.5741958 0.025027854
-0.0759468 0.034301076 -0.81366682 -0.43693289 -0.6530695 0.61853844 0.054502882
-0.060942858 0.03008572 -0.81000012 0.12460618 -0.65194696 0.74795616 0.079756096
-0.053829391 0.033967867 -0.81269437 0.36673945 -0.60579205 0.70605814 0.048182629
-0.046454635 0.036371581 -0.81680012 0.52918845 -0.58410352 0.61545324 0.050688501
-0.091260001 0.049139999 -0.81900012 -0.74082732 -0.39993677 0.53965306 0.0089652231
-0.085009187 0.045381233 -0.8145715 -0.6711843 -0.46358338 0.57844794 0.018799948
-0.078623496 0.042017147 -0.81200004 -0.51609755 -0.5730142 0.63663024 0.033287499
-0.050835051 0.042181339 -0.81120008 0.48361921 -0.53993231 0.68890178 0.08338441
-0.044394039 0.044492722 -0.81322569 0.57127213 -0.48856729 0.65950751 0.06596037
-0.038206983 0.045982223 -0.81653351 0.58745211 -0.51625663 0.62320065 0.041228279
-0.092751138 0.055771828 -0.81650025 -0.75268686 -0.38691437 0.532691 0.0081982408
-0.087329149 0.052868318 -0.81240016 -0.69859326 -0.42700621 0.57413685 0.011434179
-0.041887861 0.051926434 -0.81075001 0.57379842 -0.49235007 0.65448207 0.052659512
-0.035220977 0.055291638 -0.81502378 0.57319635 -0.50234342 0.64737701 0.058353338
-0.027600953 0.058230162 -0.81766677 0.62718469 -0.46481273 0.62497091 0.0013914187
-0.10049715 0.068555243 -0.81800008 -0.7793178 -0.3663491 0.50838184 0.0067075929
-0.095879376 0.06503167 -0.81458348 -0.7697351 -0.37635425 0.5156213 0.0076773311
-0.031497978 0.062415596 -0.811625 0.58496332 -0.47731155 0.65573746 0.02871264
-0.0253675 0.06515196 -0.81506252 0.63398415 -0.45214805 0.62739652 0.0012224485
-0.10194892 0.076097347 -0.81535733 -0.78545803 -0.36036843 0.50318027 0.0074030152
-0.097835235 0.07388889 -0.81100005 -0.77660686 -0.36823848 0.51115769 0.00820674
-0.023209717 0.074286588 -0.81356007 0.64325058 -0.43612781 0.62930214 0.001321357
-0.017152829 0.077721231 -0.81658846 0.61032766 -0.43122092 0.66449136 0.0086244112
-0.10471801 0.085164391 -0.81391317 -0.7906518 -0.36356634 0.49263507 0.0082657617
-0.099514291 0.081 -0.81000012 -0.76558322 -0.35338646 0.53758746 0.019579522
-0.020828569 0.081771433 -0.81000012 0.65194565 -0.42337334 0.62906426 0.0010411204
-0.014092335 0.084684305 -0.81470728 0.60955381 -0.40923637 0.67894757 0.010183359
-0.0072730165 0.088587634 -0.81833339 0.58642232 -0.4206838 0.69219506 0.010851838
-0.11133572 0.096536361 -0.81750011 -0.76843768 -0.35795835 0.5304426 0.0055040428
-0.10784028 0.093806878 -0.81226683 -0.79583406 -0.33796623 0.50242114 0.00092125859
-0.011691148 0.093593441 -0.81217659 0.6171276 -0.41380829 0.66926539 0.0075439005
-0.0055478169 0.095645361 -0.81651735 0.58219194 -0.40980729 0.70221835 0.012113275
0.00078000012 0.097499996 -0.81900012 0.56877738 -0.41508058 0.71007073 0.012313955
-0.1136646 0.10531694 -0.81594759 -0.75663704 -0.3588689 0.54654694 0.0075961752
-0.1087714 0.1010571 -0.81000012 -0.7781027 -0.34444851 0.52527279 0.0043493509
-0.01002857 0.1010571 -0.81000012 0.62699151 -0.43325958 0.64743173 0.0020532531
-0.0039152382 0.10386688 -0.81300002 0.60240841 -0.42805499 0.67370105 0.0040631248
0.0041281478 0.10685731 -0.8181113 0.56928033 -0.43490803 0.69769251 0.0053113373
0.010131747 0.10833047 -0.81833351 0.5435065 -0.4404065 0.71459275 0.0056862906
-0.1216062 0.11848715 -0.81850004 -0.71576107 -0.37541229 0.58885628 0.013526773
-0.11648995 0.11522583 -0.81566685 -0.7289179 -0.36201164 0.58105618 0.012789483
-0.00077238097 0.11122195 -0.81100005 0.61499602 -0.44705001 0.64955842 0.0021939187
0.0051925262 0.11471621 -0.81372726 0.59620613 -0.4548617 0.66154295 0.0023552871
0.010086347 0.11482634 -0.81466669 0.56904036 -0.47683549 0.66994113 0.0031257609
-0.12415548 0.12550412 -0.81590325 -0.70969915 -0.37188929 0.59835219 0.014059224
-0.11834751 0.12441661 -0.81142867 -0.74339753 -0.3547397 0.56702721 0.0082395915
0.0069635715 0.12144975 -0.81224996 0.57388192 -0.47341195 0.66823697 0.0025844306
0.010061583 0.12151173 -0.81266665 0.56611818 -0.47568959 0.67322326 0.0031027829
-0.12562023 0.13459373 -0.81489295 -0.72638756 -0.35016033 0.59139568 0.010240636
-0.11925953 0.13160902 -0.81050009 -0.73765904 -0.34741202 0.57893354 0.0087505747
-0.066179052 0.028472381 -0.80800003 -0.026985485 -0.65984893 0.7509135 0.082004927
-0.071575768 0.035958786 -0.80654544 -0.25122467 -0.6496805 0.71749657 0.069338314
-0.064752929 0.034617148 -0.80533338 -0.024156004 -0.58331805 0.81188458 0.07458017
-0.057647768 0.036952674 -0.80707693 0.2003987 -0.59186566 0.78072745 0.063232034
-0.080666661 0.048398733 -0.80666673 -0.53119534 -0.50290483 0.68184906 0.029938143
-0.075664863 0.044492479 -0.80409998 -0.40060139 -0.58242953 0.70731491 0.044452645
-0.063014284 0.040863816 -0.80199999 0.049414814 -0.59499919 0.80220574 0.064355835
-0.054322667 0.044201154 -0.80421436 0.36392066 -0.55385566 0.7488696 0.032546557
-0.048582647 0.047899473 -0.80688894 0.49534345 -0.48051015 0.72370225 0.037095197
-0.083499536 0.055428661 -0.80495661 -0.64734119 -0.44473171 0.61900169 0.022261159
-0.078672379 0.051939048 -0.80199999 -0.50277382 -0.50567949 0.70107538 0.028026186
-0.05168445 0.051684447 -0.80199999 0.41658324 -0.49260998 0.76406401 0.049326357
-0.045094378 0.054643255 -0.80522579 0.53800577 -0.48608813 0.68867129 0.02816209
-0.038476191 0.059253331 -0.80800003 0.57824308 -0.44509307 0.68375945 0.059883267
-0.091374539 0.065836906 -0.8062501 -0.74397707 -0.38874182 0.54348671 0.0079390965
-0.087730795 0.064009733 -0.80333328 -0.70754617 -0.40413502 0.57970095 0.010004236
-0.040889055 0.061524287 -0.80250001 0.55622518 -0.49077001 0.67064023 0.029748162
-0.035202883 0.065669902 -0.80589753 0.58465523 -0.469161 0.66186571 0.054437935
-0.029937141 0.069853343 -0.80600011 0.61763752 -0.44708389 0.64702386 0.0014496081
-0.094074667 0.075210862 -0.80499995 -0.75413775 -0.34900716 0.5563004 0.020564862
-0.033774968 0.072799191 -0.80342859 0.59954458 -0.43369105 0.67265034 0.051425621
-0.027558355 0.075424157 -0.80590898 0.60942781 -0.42022631 0.672315 0.021821147
-0.10106552 0.087835051 -0.80760002 -0.76516676 -0.36141118 0.53282434 0.022377703
-0.097547442 0.084256515 -0.80480003 -0.76092029 -0.36222631 0.5383237 0.022431379
-0.023955498 0.084391937 -0.80460012 0.62957698 -0.41563898 0.6564123 0.017580692
-0.018920764 0.087835051 -0.80760002 0.65940189 -0.41657057 0.62582594 0.00098838808
-0.10310993 0.09499152 -0.80491662 -0.76627284 -0.3539353 0.53624237 0.016447956
-0.098531432 0.090893343 -0.80199999 -0.76210618 -0.34948665 0.54502594 0.01402405
-0.021399528 0.091713816 -0.80250001 0.62608653 -0.43345806 0.64817423 0.019468376
-0.01596267 0.095284574 -0.80600005 0.65150321 -0.42608324 0.62769139 0.00082958193
-0.11055493 0.10696384 -0.80800003 -0.77986884 -0.34130388 0.52470577 0.0043743066
-0.10624077 0.10421828 -0.80409086 -0.76385599 -0.37352231 0.52631265 0.015088843
-0.012458043 0.10400011 -0.80452627 0.63029236 -0.43865058 0.64056009 0.0011653946
-0.0077292705 0.10767186 -0.8064 0.6244728 -0.44152278 0.64427572 0.0019241309
-0.11173812 0.11526306 -0.80580008 -0.77253574 -0.34003267 0.53625196 0.00548854
-0.10875406 0.11333976 -0.80274999 -0.79124832 -0.34140745 0.50731349 0.0012193102
-0.01145714 0.1107524 -0.80199999 0.62912148 -0.43733993 0.64260399 0.0015022495
-0.0037703298 0.11377371 -0.80469239 0.61856323 -0.44381908 0.64838582 0.0017645324
0.0012087075 0.11677388 -0.80742866 0.60086262 -0.45915499 0.65432465 0.0027127562
-0.11443456 0.12450749 -0.80485713 -0.77964461 -0.35138419 0.51834673 0.0031196964
-0.00076444447 0.12154537 -0.80266666 0.59546769 -0.46708891 0.65364075 0.0032247202
0.0048748516 0.12569007 -0.8054055 0.55900037 -0.48759902 0.67064577 0.0030486237
0.010507303 0.1263511 -0.80733341 0.55253226 -0.49380425 0.67146528 0.0032503002
-0.12216906 0.13789192 -0.80550003 -0.77188414 -0.32544246 0.54615206 0.0043426049
-0.11815484 0.13435784 -0.80485719 -0.76897848 -0.3450205 0.53817552 0.0030530491
0.0089269849 0.1336327 -0.8033334 0.54134172 -0.49138841 0.6822657 0.0032142631
0.011485713 0.13476256 -0.80400008 0.5510245 -0.49509588 0.67175299 0.0034495755
-0.12567939 0.1437194 -0.80392867 -0.79162282 -0.31545827 0.52327752 0.0036883
-0.124501 0.1535257 -0.80199999 -0.79373491 -0.32027456 0.51711613 0.0064956374
-0.067047618 0.03885714 -0.80000001 -0.050994314 -0.57749087 0.814803 0.059425514
-0.07277786 0.047089167 -0.79912508 -0.28844741 -0.56916487 0.76996708 0.055051826
-0.064786777 0.045220423 -0.7982443 0.023450065 -0.57044071 0.82100403 0.054820832
-0.056768943 0.047629304 -0.79969245 0.25357279 -0.51811349 0.81685936 0.039067697
-0.081523813 0.058666669 -0.80000001 -0.57100719 -0.47196698 0.6717127 0.019428581
-0.074476317 0.055375695 -0.79547489 -0.35610065 -0.55638295 0.75075322 0.043934751
-0.064574398 0.05399847 -0.79305571 -0.008760578 -0.55908114 0.82906669 0.054240599
-0.05545076 0.055829328 -0.79665923 0.30988675 -0.54644686 0.77805269 0.062851362
-0.04830423 0.05760942 -0.7994445 0.49561357 -0.49596697 0.71301043 0.035837613
-0.083344519 0.065566458 -0.79773921 -0.62828314 -0.38831988 0.67414242 0.044476215
-0.077598348 0.062989853 -0.79306674 -0.44768143 -0.49090835 0.74738902 0.052025173
-0.053489659 0.063334294 -0.79214299 0.38173735 -0.53825402 0.75137156 0.058880739
-0.045095157 0.064989343 -0.79772729 0.53882915 -0.47489765 0.69579846 0.076512851
-0.03885714 0.069333337 -0.80000001 0.55497217 -0.4530609 0.69766879 0.084803298
-0.090812765 0.077728957 -0.79860002 -0.72082567 -0.37730655 0.58142084 0.043473747
-0.085691087 0.074531317 -0.79490918 -0.66869301 -0.37119848 0.6442526 0.065077916
-0.05047334 0.07006 -0.79100001 0.44817668 -0.42229629 0.78791082 0.072823897
-0.044078045 0.073799089 -0.79373682 0.54832691 -0.40273258 0.7329011 0.097904272
-0.0357907 0.076743938 -0.79734492 0.55459696 -0.44255185 0.70467734 0.077460743
-0.02971429 0.078476191 -0.80000001 0.5964132 -0.4136098 0.68790859 0.033156652
-0.093099877 0.085367836 -0.79650015 -0.74304378 -0.36032197 0.56396282 0.014983199
-0.088243455 0.083484329 -0.79192317 -0.68284577 -0.42046493 0.59743696 0.072935425
-0.03339887 0.084583424 -0.79377788 0.58521748 -0.41175786 0.69855279 0.04348946
-0.02797888 0.086089015 -0.79911774 0.59944451 -0.40645394 0.68953711 0.035961106
-0.095921293 0.094848372 -0.7948519 -0.75394732 -0.36695349 0.54489315 0.015509007
-0.031203618 0.09300743 -0.79140007 0.58101153 -0.44882852 0.67895406 0.047584083
-0.025349038 0.095099241 -0.79604441 0.60336828 -0.44687167 0.66049409 0.030648496
-0.017881906 0.099303812 -0.79899997 0.6553272 -0.42460468 0.62470549 0.001138516
-0.1025738 0.10615083 -0.79778582 -0.76433229 -0.37466964 0.52480358 0.016663549
-0.097692668 0.10237 -0.79269999 -0.75467306 -0.37793198 0.53631699 0.014325255
-0.023777915 0.10347015 -0.79229033 0.5969159 -0.47322935 0.64787757 0.031796414
-0.016948413 0.10563049 -0.79700017 0.64636308 -0.42939797 0.63073933 0.00075538922
-0.1104762 0.119619 -0.80000001 -0.78798097 -0.34071225 0.5128364 0.001131146
-0.10497174 0.11538924 -0.79568005 -0.78353208 -0.3411701 0.51930767 0.0011871686
-0.014322438 0.11455481 -0.79414707 0.64339197 -0.42303759 0.63803297 0.0013409416
-0.0073700207 0.11646104 -0.79834789 0.61563909 -0.44189999 0.65246677 0.0024088358
-0.11158182 0.12602012 -0.79809999 -0.79159486 -0.34592006 0.50370312 0.0010866133
-0.10755293 0.12464637 -0.79321063 -0.78499991 -0.34747177 0.51287287 0.0015829917
-0.012363237 0.12273467 -0.79159993 0.61180294 -0.43615255 0.65990013 0.0025283128
-0.0054896246 0.12515226 -0.79542553 0.60544991 -0.4561747 0.65217721 0.0030103677
0.0012685714 0.12905398 -0.79866666 0.57735598 -0.47480926 0.66424119 0.0030783368
-0.11410649 0.1355889 -0.7953704 -0.80244875 -0.32386801 0.50118417 0.0025160478
-0.10882317 0.13093874 -0.79166669 -0.78828782 -0.34458295 0.5097695 0.001360763
-0.0030176623 0.13367455 -0.79300004 0.58070976 -0.47305217 0.66256905 0.0028308223
0.0041709137 0.13535993 -0.79789197 0.56691629 -0.47884324 0.67030966 0.0033386177
0.01138571 0.1389057 -0.79700011 0.54654884 -0.47825867 0.6874249 0.0044111898
-0.12109242 0.14596921 -0.79966676 -0.80269325 -0.31187978 0.50834489 0.003684947
-0.11747215 0.14419976 -0.79525012 -0.8039301 -0.31081173 0.50704294 0.0032276183
0.0059403605 0.14326787 -0.79278398 0.55717379 -0.47876135 0.67848718 0.003263246
0.011333331 0.14455462 -0.79333341 0.52851617 -0.47755075 0.70186603 0.003934023
-0.12327837 0.15545237 -0.79552388 -0.80398589 -0.3287828 0.49548829 0.0048388541
-0.11978 0.15744667 -0.79100007 -0.81356037 -0.33414373 0.47588596 0.005842132
0.0097933328 0.15142 -0.79100001 0.54286093 -0.47423965 0.69310808 0.0036217419
0.0113 0.15142 -0.79100001 0.53639555 -0.47362065 0.69854367 0.0045744693
-0.12490738 0.16475916 -0.79399991 -0.80109781 -0.330942 0.49871802 0.0061177737
-0.11833726 0.16463397 -0.79255551 -0.80970943 -0.32900214 0.48593029 0.0053239642
-0.12783141 0.17206416 -0.79336369 -0.79319704 -0.35504109 0.49475673 0.006907538
-0.13401429 0.18625715 -0.79500002 -0.73969978 -0.44387406 0.50578654 0.0067506186
-0.071385719 0.059362859 -0.78899997 -0.26351997 -0.52587593 0.80870986 0.062189855
-0.065522648 0.059012167 -0.78877777 0.014789592 -0.52492696 0.85101879 0.06500113
-0.074044503 0.066485986 -0.78757137 -0.32474181 -0.5220319 0.78868598 0.066400275
-0.064981245 0.064521797 -0.78551155 0.011410336 -0.54778033 0.83654433 0.064034231
-0.056140605 0.066862926 -0.78755558 0.28516915 -0.54828936 0.78616625 0.048886508
-0.080812387 0.075372145 -0.78750002 -0.59013397 -0.4228361 0.68771476 0.086088754
-0.075922862 0.074263133 -0.78428584 -0.43381476 -0.50913703 0.74336004 0.077506617
-0.069262862 0.07075239 -0.78200012 -0.10704675 -0.58654374 0.80281222 0.070664175
-0.053149004 0.074314661 -0.7846452 0.4148393 -0.47172356 0.77806509 0.099279083
-0.046868749 0.07797958 -0.78799993 0.49566388 -0.4518663 0.74171025 0.089100622
-0.084469676 0.085244298 -0.78652006 -0.66467565 -0.44534659 0.59989381 0.071510494
-0.079193026 0.081675559 -0.78200018 -0.58622932 -0.46879268 0.66073346 0.05152544
-0.044670705 0.084115013 -0.78484619 0.5196355 -0.49205017 0.69847381 0.090615988
-0.037855156 0.085804678 -0.78781813 0.55669862 -0.46014139 0.69163328 0.069025055
-0.091627017 0.0969465 -0.78799993 -0.74356377 -0.37926492 0.55070049 0.013741686
-0.088110007 0.094092183 -0.78592867 -0.72085732 -0.40366989 0.56339616 0.01735278
-0.041990481 0.091186039 -0.7826668 0.55922472 -0.50916868 0.65422845 0.065363131
-0.035184056 0.094890572 -0.78615779 0.57996094 -0.46607959 0.66814303 0.048223428
-0.094510645 0.10560419 -0.78603446 -0.74953729 -0.35785341 0.55689752 0.040930204
-0.088626683 0.1005429 -0.78200012 -0.74227685 -0.39070153 0.54440558 0.01529672
-0.032192975 0.10348774 -0.78387517 0.57762218 -0.49575227 0.64852309 0.043916658
-0.026813954 0.10689272 -0.78654999 0.61654323 -0.43860814 0.65383285 0.014974425
-0.10118569 0.11692382 -0.787 -0.75639743 -0.35478044 0.54953951 0.035510372
-0.098031349 0.11375254 -0.78447396 -0.75978929 -0.34947675 0.54825741 0.035579629
-0.023217285 0.11394537 -0.78502941 0.62570691 -0.38223428 0.67999101 0.024647716
-0.017862953 0.11648657 -0.7881 0.61475122 -0.39313069 0.683761 0.025260242
-0.10305525 0.12454014 -0.78571439 -0.75850713 -0.36784819 0.53791696 0.035273261
-0.020631431 0.1217984 -0.78300011 0.59552819 -0.4191952 0.68528944 0.029031994
-0.015571965 0.12564509 -0.78587502 0.59300554 -0.42695102 0.68268383 0.023674414
-0.0097685717 0.1299971 -0.78899997 0.58567792 -0.45709565 0.66936159 0.0034785406
-0.11039 0.13817474 -0.78849995 -0.80379176 -0.33625144 0.49076858 0.0027783497
-0.10733939 0.1345979 -0.78578585 -0.78770357 -0.35144046 0.5059768 0.0013901293
-0.013124446 0.13461825 -0.7838335 0.58524549 -0.44918847 0.67506844 0.0031316276
-0.0071119219 0.13620047 -0.78772408 0.57448369 -0.46067998 0.67656678 0.0028645492
-0.11266441 0.14542113 -0.78672731 -0.81168485 -0.32967547 0.48216361 0.0036553047
-0.10887431 0.1431762 -0.78300005 -0.80857676 -0.33071873 0.48665053 0.0032266453
-0.011677461 0.14137651 -0.7826668 0.57509363 -0.44132388 0.68883991 0.0025117341
-0.0041647078 0.1438546 -0.78568566 0.57294708 -0.45828709 0.67948848 0.0029322635
0.0041731223 0.14794731 -0.7885555 0.55884367 -0.4640179 0.68729997 0.0032146543
0.01127143 0.1495343 -0.78899997 0.54299867 -0.47426638 0.69298184 0.0037121281
-0.1159726 0.15411234 -0.785963 -0.81078804 -0.33283517 0.48150128 0.0044556768
0.0054825852 0.15423018 -0.78433329 0.55324745 -0.46713704 0.68971026 0.0035213092
0.01125 0.15524572 -0.78750002 0.53510535 -0.47317615 0.69983327 0.0049509215
-0.12187907 0.16867714 -0.78833336 -0.81081057 -0.33357415 0.48095167 0.0053092982
-0.11816925 0.16766639 -0.78742862 -0.81289208 -0.33947703 0.47324601 0.0045168451
0.0078382557 0.16191968 -0.78350008 0.54676837 -0.44346011 0.7102024 0.0036013613
0.01124762 0.16121274 -0.78733337 0.5573296 -0.4398295 0.70422572 0.0052493173
-0.12510572 0.17480811 -0.78508002 -0.8079049 -0.36248973 0.46464056 0.0065780114
-0.13094443 0.18556033 -0.7856667 -0.77030802 -0.40658507 0.49123734 0.0063321381
-0.12890759 0.18461734 -0.78420007 -0.77232426 -0.39935261 0.49399659 0.0059202942
-0.065371431 0.068590485 -0.77999997 -0.026959538 -0.56135118 0.82713842 0.072271176
-0.072748385 0.077479005 -0.77943748 -0.33018693 -0.51397473 0.79171115 0.093712762
-0.064512357 0.074713066 -0.77745646 0.0058676582 -0.58555496 0.81061143 0.072211355
-0.056891184 0.077067465 -0.77885008 0.29879394 -0.50330913 0.81080335 0.08184851
-0.081840478 0.088761114 -0.77883333 -0.60060978 -0.48154461 0.63826543 0.049525112
-0.075212099 0.084870018 -0.77605402 -0.45895207 -0.53018087 0.71293145 0.10375427
-0.065481909 0.082572751 -0.77253836 -0.028347794 -0.60244334 0.79765809 0.091195934
-0.055225112 0.084739067 -0.77546811 0.32581511 -0.58219326 0.7449131 0.083269075
-0.048383258 0.087733582 -0.77958322 0.51072818 -0.50658983 0.69463903 0.07153213
-0.083012044 0.09540505 -0.77571446 -0.61917466 -0.46081316 0.63582546 0.031704452
-0.077231072 0.092732906 -0.77230781 -0.53815508 -0.4988066 0.67939758 0.043864843
-0.052451305 0.092881538 -0.77280015 0.44897985 -0.53192377 0.7179653 0.044798151
-0.04533793 0.095598347 -0.77608705 0.55574363 -0.52637005 0.64349324 0.055675313
-0.038356036 0.097746514 -0.77950001 0.58405405 -0.49139813 0.64607173 0.05446567
-0.091312855 0.10838715 -0.77950001 -0.75635386 -0.37851685 0.53352964 0.042351637
-0.086495645 0.10467109 -0.77478576 -0.70678949 -0.345465 0.61733502 0.050701369
-0.042677402 0.1037529 -0.77263641 0.56659961 -0.48128426 0.66882759 0.059622213
-0.036278047 0.10579728 -0.77745956 0.59588718 -0.47087422 0.65053511 0.032653153
-0.093294568 0.115849 -0.77811116 -0.73762679 -0.36259761 0.56958735 0.051706664
-0.088460527 0.11467006 -0.77227277 -0.73834819 -0.3786096 0.55811882 0.062906891
-0.033932157 0.11518477 -0.77467382 0.64390612 -0.3899115 0.65829617 0.028517727
-0.027204501 0.11648527 -0.77905554 0.62438881 -0.37672636 0.68426305 0.027728112
-0.10129155 0.12717076 -0.77957141 -0.76130825 -0.38210565 0.52383679 0.034878686
-0.095652476 0.12413218 -0.77440625 -0.76143867 -0.39219686 0.51613259 0.033452403
-0.088963807 0.1213143 -0.77200001 -0.73605841 -0.39958271 0.5463987 0.048757024
-0.031712141 0.12418298 -0.77212501 0.62956202 -0.39678735 0.66799068 0.045325331
-0.024757208 0.1252715 -0.77648878 0.61646754 -0.42330033 0.66391611 0.030679904
-0.018571431 0.1285143 -0.77999997 0.59398288 -0.43448177 0.67705977 0.026901113
-0.10315283 0.1358899 -0.77818185 -0.78227109 -0.36348832 0.50589353 0.0014411255
-0.098653428 0.1332089 -0.77354544 -0.77502412 -0.36668852 0.51466215 0.001443119
-0.031615239 0.1321958 -0.77200001 0.58985376 -0.43487307 0.68041015 0.060296647
-0.024465572 0.13435996 -0.77390003 0.57059473 -0.47459093 0.67021269 0.049300063
-0.017805941 0.13562021 -0.77783996 0.58528769 -0.46691945 0.66289103 0.027054049
-0.10515556 0.14480557 -0.77506894 -0.79696184 -0.35219717 0.49072304 0.0036297473
-0.02132191 0.1404305 -0.77200001 0.61878198 -0.4337565 0.65495342 0.0024796023
-0.014025494 0.14411268 -0.77523345 0.59241533 -0.45198193 0.66690063 0.0020831362
-0.0069031073 0.14736149 -0.77836841 0.57088852 -0.45001593 0.68671083 0.0026962329
-0.11181694 0.15591924 -0.77959991 -0.81404382 -0.33325592 0.47568181 0.0032674184
-0.10804531 0.15395415 -0.77400005 -0.80825323 -0.33912477 0.48137423 0.0027070481
-0.011518731 0.15243937 -0.77200001 0.58182055 -0.45807615 0.67204994 0.001864574
-0.0049890014 0.15478076 -0.77531374 0.57531869 -0.45137975 0.68210316 0.0023580412
0.0016708336 0.15791562 -0.77937496 0.55234742 -0.45617372 0.69772339 0.0032893624
-0.1139619 0.16689907 -0.77200001 -0.80571866 -0.33981222 0.48512369 0.0031781381
-0.0024323077 0.16268066 -0.77238464 0.56425244 -0.46276206 0.68371814 0.0027493967
0.0040171677 0.16575095 -0.77697366 0.54066306 -0.46821636 0.69889694 0.0033066457
-0.12228044 0.17758365 -0.77899987 -0.80236143 -0.3608599 0.47539067 0.0055104662
-0.11691924 0.1742319 -0.77533334 -0.80347991 -0.34892645 0.48235917 0.0047045634
0.0057525719 0.1728625 -0.77395993 0.55726087 -0.45520556 0.69444096 0.0034555383
-0.12379822 0.18501769 -0.77806246 -0.78961307 -0.33333668 0.51516777 0.010757528
-0.11828866 0.18408412 -0.77292323 -0.79952973 -0.28915015 0.52644509 0.014594628
-0.1301371 0.19924951 -0.77200001 -0.75522542 -0.23616387 0.61144197 0.02664808
-0.12631635 0.19250199 -0.77492315 -0.77126688 -0.27464452 0.57421064 0.020451896
-0.13130686 0.20493503 -0.77311116 -0.74737895 -0.22202441 0.6262027 0.031644281
-0.01754068 0.24567454 -0.77200001 0.23089455 0.53526527 0.81251377 0.0027215416
-0.071883246 0.088863432 -0.76859999 -0.3367961 -0.52503204 0.78160721 0.050517939
-0.064956382 0.087506026 -0.76813787 0.002419251 -0.56818229 0.82289916 0.078132004
-0.058590472 0.089349531 -0.76900005 0.28322712 -0.57423854 0.76813567 0.07365644
-0.073703468 0.096068688 -0.76664513 -0.35431901 -0.49961165 0.79047221 0.065160006
-0.064629927 0.095125012 -0.76248991 -0.022154402 -0.54974812 0.83503658 0.063441105
-0.056042455 0.095945902 -0.76771438 0.30409443 -0.55592108 0.77361387 0.0837318
-0.082501471 0.10660125 -0.76869231 -0.60194749 -0.45026258 0.65948677 0.033690393
-0.076198556 0.10381854 -0.76352775 -0.49086788 -0.50063062 0.71303421 0.048361991
-0.063467145 0.10087283 -0.76016676 -0.008279941 -0.58491212 0.81105441 0.060584612
-0.05372506 0.10442976 -0.76353335 0.36989123 -0.53361219 0.76055145 0.053929795
-0.046501871 0.10596248 -0.76810724 0.53574026 -0.51183707 0.67156923 0.058848824
-0.083625779 0.11484136 -0.76475 -0.64431 -0.42849243 0.63345003 0.025734097
-0.078201503 0.11154954 -0.76128584 -0.52276301 -0.48412275 0.70167226 0.044180404
-0.052838102 0.1107429 -0.76000011 0.3679266 -0.52271044 0.76902783 0.054397516
-0.044205293 0.11447754 -0.76465309 0.58653617 -0.40801844 0.6996401 0.040897194
-0.038605399 0.11703715 -0.76966667 0.61001498 -0.37056503 0.70040232 0.062367149
-0.092435338 0.12765166 -0.76688892 -0.72999656 -0.39954871 0.55449599 0.023482552
-0.087703429 0.12464943 -0.76230007 -0.69612962 -0.41758192 0.58397669 0.024092171
-0.042335145 0.12480441 -0.76307416 0.63380969 -0.40782788 0.65723783 0.087165818
-0.036485031 0.12600994 -0.76762867 0.58467722 -0.40055895 0.70548218 0.080310389
-0.094259068 0.13509861 -0.76421869 -0.75102371 -0.38128039 0.5390628 0.001396783
-0.089028567 0.1317333 -0.76000011 -0.72120142 -0.42446321 0.54744822 0.024836084
-0.033474542 0.1334275 -0.76342112 0.60599697 -0.46427238 0.64592481 0.074190453
-0.028102538 0.13784668 -0.76650012 0.57658875 -0.48812479 0.65519428 0.063186534
-0.10119651 0.14655058 -0.76811117 -0.76981384 -0.37415546 0.51710188 0.001449825
-0.097333401 0.14434817 -0.76300007 -0.76022846 -0.37902465 0.52762967 0.0015911169
-0.03112381 0.14259051 -0.76000011 0.57117516 -0.49805278 0.65245879 0.051625215
-0.025141079 0.14446068 -0.7635417 0.57026005 -0.4924289 0.65750837 0.042922582
-0.01770024 0.14661109 -0.76908326 0.61338925 -0.44580984 0.65192574 0.0022780714
-0.1104457 0.15872 -0.76800001 -0.81287491 -0.33259499 0.47813711 0.0030448998
-0.10376194 0.15544207 -0.76406908 -0.77372146 -0.36025935 0.5211221 0.0015404335
-0.098712958 0.1511842 -0.76100004 -0.76531625 -0.36264133 0.53177285 0.0013364354
-0.02273641 0.15389028 -0.76122737 0.59289914 -0.47672269 0.64900392 0.02521304
-0.015819568 0.15544362 -0.76645464 0.60278219 -0.45629406 0.65456051 0.001454441
-0.0080666672 0.15864444 -0.76999998 0.58504468 -0.44493565 0.67805243 0.0021033594
-0.11127589 0.16439968 -0.76766664 -0.81043416 -0.33168253 0.48289043 0.0029781549
-0.10663325 0.16399997 -0.76300007 -0.79644763 -0.33372882 0.50427788 0.0029109451
-0.014242287 0.16404296 -0.76335001 0.60831827 -0.42157322 0.67247665 0.0012000808
-0.0060988041 0.16582118 -0.76876932 0.57546318 -0.45479125 0.67971098 0.0025161298
-0.1118802 0.17518345 -0.76580012 -0.80082011 -0.31196961 0.51123595 0.0048961435
-0.10912818 0.17400272 -0.76171434 -0.7960121 -0.30513313 0.52274138 0.0033604107
-0.011344443 0.17065239 -0.76033342 0.59133917 -0.41242206 0.69298345 0.0029268542
-0.0043916972 0.17421287 -0.76415223 0.56474316 -0.42324191 0.70847124 0.0042918702
0.0034452726 0.17711894 -0.76760703 0.56996405 -0.42567226 0.70281154 0.0052812141
-0.121 0.1899333 -0.76999998 -0.77597243 -0.24411783 0.58161265 0.020632261
-0.11437021 0.18520999 -0.76408005 -0.76326203 -0.19479962 0.61602283 0.017576173
-0.002013122 0.18427491 -0.76144451 0.54440856 -0.34312585 0.76543057 0.01387703
0.0051591066 0.1852107 -0.76436722 0.5341292 -0.38831106 0.75094646 0.011044188
0.01199 0.18711667 -0.76300001 0.52672857 -0.35479775 0.77244776 0.015667707
-0.12345789 0.19564745 -0.76735717 -0.73300034 -0.14371134 0.66487402 0.033882473
-0.11790781 0.19405545 -0.76282358 -0.70799047 -0.019684749 0.70594764 0.043155093
0.0057412465 0.19404446 -0.76076931 0.51247799 -0.23023607 0.82725912 0.020553293
0.01146057 0.19192152 -0.76160002 0.50699282 -0.24107538 0.82755119 0.024858538
-0.12552176 0.20529793 -0.76699996 -0.68005425 -0.03806616 0.73217285 0.054274905
-0.11644495 0.2064939 -0.76130009 -0.61200047 0.14246444 0.77791989 0.049729146
-0.10758686 0.20894651 -0.76020008 -0.57440627 0.18054011 0.79841268 0.043011092
0.0062247622 0.20107435 -0.76000017 0.49647588 -0.034949854 0.86734664 0.032391563
-0.12183049 0.21229103 -0.76600003 -0.58056372 0.029135898 0.81369334 0.056392584
-0.11506505 0.21319976 -0.76328593 -0.54229057 0.20211254 0.81551909 0.040137779
-0.10494947 0.2141189 -0.76083344 -0.44234091 0.3661176 0.81871378 0.027971316
-0.098679386 0.21400635 -0.76000011 -0.40687248 0.39113581 0.82551056 0.025946978
-0.0217281 0.22959855 -0.76050007 0.22633211 0.49391866 0.83953458 0.044289157
-0.014719925 0.2264519 -0.76115394 0.22382243 0.46963418 0.85401827 0.044183623
-0.0082933353 0.22665758 -0.76088893 0.30655688 0.45815459 0.83433646 0.0096682804
-0.034056891 0.23623735 -0.7608847 0.28232989 0.47163141 0.83537638 0.044365276
-0.025448764 0.23550743 -0.76354289 0.23671345 0.49027902 0.8388046 0.060324125
-0.015303855 0.23466583 -0.76519996 0.22540921 0.53152853 0.8164975 0.0030890165
-0.0084500965 0.23293829 -0.76480001 0.20697065 0.5265398 0.82457203 0.0037669342
-0.039916143 0.2013209 -0.76523018 -0.18437952 0.38560638 0.90405303 0.2616916
-0.035322655 0.21149008 -0.76778442 0.21038182 0.37485191 0.90289831 0.17739995
-0.039938513 0.20654213 -0.76981157 0.99750626 -0.049120076 -0.050679553 0.26256207
-0.052538112 0.096602924 -0.7959559 0.14471233 -0.88973331 0.43293527 0.21359655
-0.063496225 0.089713618 -0.80703568 -0.080093659 -0.99506247 -0.058614902 0.22624117
-0.049445458 0.094604649 -0.80486405 -0.24247533 -0.76922584 0.59118301 0.17833504
-0.072516479 0.067587532 -0.83982521 -0.24252097 -0.80159867 0.54646432 0.057374064
-0.07209114 0.10627605 -0.75753856 -0.27957708 -0.54556936 0.79005748 0.069829404
-0.065130398 0.10562756 -0.75495851 -0.050800342 -0.59265298 0.80385435 0.068003163
-0.058425937 0.10680982 -0.7573846 0.19211818 -0.56546485 0.8020848 0.066489905
-0.081575237 0.11863303 -0.75800008 -0.56703621 -0.47221446 0.67489499 0.038743414
-0.074886754 0.11535453 -0.75422519 -0.39909992 -0.50203264 0.7672565 0.080815397
-0.064810954 0.11316252 -0.75135726 -0.0086722178 -0.5511198 0.8343811 0.091743559
-0.055411771 0.11516318 -0.75453866 0.33039483 -0.52195132 0.78638798 0.06971065
-0.048851173 0.1165208 -0.75736362 0.56074977 -0.42852545 0.70846707 0.063870288
-0.082997382 0.12574676 -0.75558341 -0.58426368 -0.47000095 0.66161543 0.054039624
-0.078013457 0.12372738 -0.75149995 -0.47788745 -0.50837076 0.71636766 0.067439206
-0.052304499 0.12320001 -0.75085717 0.4661192 -0.50170624 0.72871369 0.078229517
-0.047359079 0.1251139 -0.75421888 0.60105753 -0.44148716 0.66619736 0.078917392
-0.090719365 0.13764316 -0.75800002 -0.74230212 -0.38074738 0.55137914 0.0011310618
-0.08523573 0.13449195 -0.75352949 -0.6535365 -0.45003822 0.60856861 0.042875558
-0.044053052 0.13431542 -0.75220007 0.63976955 -0.41657954 0.64587653 0.072810344
-0.036209211 0.13541368 -0.7560001 0.63434398 -0.44122508 0.63476622 0.057742763
-0.092825048 0.14564529 -0.7555418 -0.73991627 -0.37988329 0.55516911 0.0011659185
-0.087914787 0.14377564 -0.75305259 -0.69541264 -0.41236952 0.58851731 0.029136309
-0.042439438 0.14203754 -0.75020003 0.63161737 -0.46202004 0.6225729 0.07159812
-0.035047773 0.14485151 -0.75397748 0.58755368 -0.48911822 0.64462715 0.068342336
-0.02863556 0.14847176 -0.75800002 0.58745873 -0.49057037 0.64360934 0.037004754
-0.1003448 0.15809713 -0.75800008 -0.76840097 -0.35294718 0.53384286 0.0015581872
-0.095717184 0.154461 -0.75360733 -0.74870926 -0.3658542 0.55279744 0.0011113142
-0.032299396 0.15343845 -0.7519474 0.59911519 -0.46613225 0.65098518 0.04462732
-0.026933998 0.15606068 -0.75578797 0.6099602 -0.46460521 0.64194286 0.023508105
-0.10249715 0.16617544 -0.75536847 -0.78210604 -0.31279474 0.53895235 0.0026185224
-0.098782755 0.16346952 -0.75099999 -0.76249719 -0.33542153 0.55325449 0.0016694507
-0.023979412 0.16450924 -0.7522859 0.62385786 -0.39447826 0.67467648 0.0011981793
-0.017754737 0.16726859 -0.75647056 0.62009919 -0.39266017 0.67918706 0.0014655582
-0.1054355 0.17509018 -0.75465381 -0.78278738 -0.20201254 0.58858711 0.011528869
-0.021561429 0.1739243 -0.75050008 0.62542194 -0.3123723 0.7150321 0.0072308476
-0.015242825 0.17512505 -0.75405896 0.60308415 -0.36164063 0.71098918 0.0048726192
-0.0078126984 0.1777924 -0.7573334 0.57833797 -0.37295502 0.7255547 0.0078760972
-0.11107502 0.18731077 -0.75677782 -0.70940012 -0.0057930541 0.70478219 0.038806427
-0.10702111 0.18379866 -0.75310534 -0.75394344 -0.030047175 0.65625179 0.035124537
-0.01414229 0.18377325 -0.75178391 0.5545783 -0.25300097 0.79273796 0.012828431
-0.0065031145 0.18568861 -0.75454062 0.56586802 -0.2630415 0.78141063 0.016124669
-0.11372305 0.19582549 -0.75573075 -0.66511297 0.073602788 0.74310654 0.044669461
-0.10826536 0.19504958 -0.75172222 -0.66195595 0.1123575 0.74107361 0.039333943
-0.011428575 0.1907143 -0.75000012 0.51437563 -0.11984353 0.8491497 0.022457028
-0.0050143637 0.19503257 -0.753286 0.5068472 -0.039294437 0.86113983 0.026760241
0.0030293337 0.19664532 -0.75706679 0.51789957 -0.15244155 0.84174919 0.027653681
-0.11350544 0.20286471 -0.75668746 -0.63059002 0.085907131 0.77134699 0.04552047
-0.10518204 0.2041308 -0.75407708 -0.57575381 0.24658474 0.77955341 0.035713747
-0.095146224 0.20589508 -0.7527619 -0.74587429 0.25296023 0.61618394 0.070893034
-0.089523807 0.2041143 -0.75199997 -0.73754686 0.24941511 0.62754822 0.061045527
-0.014035153 0.20657958 -0.7505455 0.3987768 0.30152565 0.86605972 0.042865098
-0.0048340559 0.20492151 -0.75393522 0.48191571 0.15046667 0.86320168 0.023633629
0.0041906252 0.20429519 -0.75665629 0.47519642 0.073421702 0.87681109 0.03535226
-0.1030924 0.21339715 -0.75699997 -0.44189116 0.37293714 0.8158738 0.02558139
-0.097008988 0.21081959 -0.75771433 -0.46146762 0.38156301 0.80091023 0.028819228
-0.032142859 0.2192857 -0.75000018 0.26834714 0.46915823 0.84135628 0.070546657
-0.024071984 0.21658742 -0.75075006 0.25737014 0.44103396 0.85979629 0.079200245
-0.015079477 0.21467096 -0.75421447 0.32392108 0.40505758 0.85498744 0.03397302
-0.0049749259 0.21488272 -0.75558728 0.39989191 0.31355476 0.86126065 0.01610117
0.00071923813 0.21361375 -0.75520009 0.43424562 0.28729579 0.8537516 0.016915357
-0.053284027 0.22878629 -0.75044447 0.26123273 0.51320517 0.81754386 0.0062288931
-0.044512838 0.22739556 -0.7519474 0.38001797 0.39053625 0.83849144 0.10881061
-0.034885719 0.22506441 -0.75272244 0.2740038 0.45949411 0.84485918 0.086203285
-0.025157645 0.22448823 -0.75480568 0.21510118 0.44185403 0.87091702 0.089202099
-0.015766192 0.22158147 -0.75750005 0.25505751 0.44260249 0.85967946 0.037014198
-0.0061816336 0.22195037 -0.75700009 0.33612707 0.39603907 0.85450083 0.012483527
-0.052920308 0.23451927 -0.75092316 0.261686 0.50506663 0.82245249 0.0074905306
-0.0452898 0.23550701 -0.75489819 0.31338474 0.46772665 0.8264513 0.048735205
-0.03783014 0.2339886 -0.75788248 0.27615994 0.47756222 0.8340683 0.043717131
-0.028154289 0.2302876 -0.75800008 0.23960912 0.45764616 0.85624027 0.080556355
-0.094449803 0.20800525 -0.75492066 -0.65448421 0.27256936 0.705235 0.044404689
-0.051977698 0.14035857 -0.77249646 0.47073054 -0.54763198 0.69174558 0.21357752
-0.050363082 0.14983885 -0.77084845 0.26229438 -0.73984951 0.61953557 0.19840127
-0.061122764 0.081129327 -0.82209396 -0.10728295 -0.74779373 0.65520597 0.051789314
-0.053462338 0.081488848 -0.82110298 -0.69059229 -0.51220286 0.51061785 0.063176334
-0.0917162 0.071939334 -0.82600385 -0.77953255 -0.45628557 0.4291065 0.11609497
-0.11848729 0.075980216 -0.84566665 -0.75481856 -0.38657016 0.52991742 0.011287239
-0.079730473 0.068522289 -0.84790546 0.067917332 -0.95196271 0.2985872 0.011409232
-0.07085833 0.1178593 -0.74775004 -0.2413512 -0.51153654 0.82466966 0.086617261
-0.065099239 0.1176275 -0.74704164 -0.017076069 -0.56928658 0.82196188 0.096101046
-0.059127621 0.1189676 -0.74800003 0.19543269 -0.56757867 0.79978788 0.081633896
-0.073431209 0.12540735 -0.74565727 -0.33951491 -0.54409283 0.76726311 0.07972835
-0.064282835 0.12308673 -0.74369705 0.044806007 -0.57465887 0.81716561 0.084729157
-0.055868603 0.12552185 -0.74551284 0.32289782 -0.53249556 0.78242284 0.072347999
-0.081388891 0.13691163 -0.74744451 -0.56377518 -0.45525053 0.68913317 0.04113216
-0.077211015 0.13404016 -0.74434781 -0.45130256 -0.48427117 0.74953818 0.060096752
-0.052224092 0.13404049 -0.74440736 0.44662064 -0.49072486 0.74814379 0.072534181
-0.047803737 0.13695161 -0.74746162 0.58088696 -0.45374104 0.67578787 0.070553832
-0.084746659 0.1456584 -0.74566662 -0.65263885 -0.41860574 0.63153124 0.059656139
-0.050173331 0.14133334 -0.74199998 0.50384057 -0.45483848 0.73434782 0.041571625
-0.044776876 0.14533314 -0.74571794 0.61676079 -0.48435009 0.6204927 0.067447223
-0.038600575 0.14770803 -0.74780005 0.60892195 -0.48698679 0.62614524 0.068982877
-0.091746613 0.15667213 -0.74676472 -0.73828393 -0.36753866 0.5655548 0.00095571706
-0.087463446 0.15285316 -0.74420005 -0.70293826 -0.39750341 0.58980417 0.0035044749
-0.041103136 0.15199158 -0.74228579 0.57792026 -0.45096356 0.6801765 0.035425235
-0.036116827 0.15536101 -0.74527776 0.60857755 -0.45133775 0.65263116 0.046121489
-0.094732612 0.16490637 -0.74548477 -0.75496292 -0.30359745 0.58125693 0.0044567673
-0.089827314 0.16197143 -0.74266666 -0.74876881 -0.31858596 0.58124721 0.0040227911
-0.033048268 0.1638442 -0.74454838 0.57849401 -0.39400548 0.71421587 0.050695304
-0.02828938 0.16661775 -0.74692321 0.62193686 -0.37323344 0.68839765 0.0026570302
-0.10092125 0.17593881 -0.74746156 -0.77130246 -0.16099474 0.61577046 0.016866954
-0.097225681 0.17382064 -0.7439999 -0.77554184 -0.16933803 0.60816079 0.016950557
-0.03038667 0.1703067 -0.74199998 0.6223771 -0.32912433 0.71015763 0.0043297941
-0.025267215 0.17470446 -0.74524248 0.61971033 -0.29650453 0.72666651 0.0066748513
-0.10300265 0.1857218 -0.74586368 -0.74813044 0.035490897 0.66260189 0.034365218
-0.099303454 0.18500058 -0.74212503 -0.77917069 -0.037345387 0.62569833 0.034082141
-0.022666158 0.18362348 -0.7438215 0.60796714 -0.13057013 0.78315222 0.016664263
-0.01674794 0.18757387 -0.74666667 0.56270236 -0.13845529 0.81498224 0.019634912
-0.10284112 0.19466239 -0.74641669 -0.74936777 0.1071781 0.65342236 0.046461221
-0.095463648 0.19594258 -0.74451518 -0.79852277 0.10089693 0.59344858 0.045155041
-0.08892858 0.1999114 -0.74699998 -0.74300116 0.22326164 0.63095444 0.067566164
-0.022424033 0.19616848 -0.74264699 0.4682638 0.18034206 0.86498886 0.051907502
-0.015068395 0.19494879 -0.7462709 0.49370334 0.0078220684 0.86959517 0.029365133
-0.10092064 0.200654 -0.74800003 -0.77762061 0.092985168 0.62181985 0.056054123
-0.09528096 0.2014257 -0.74800009 -0.76334065 0.15155561 0.62796652 0.051753763
-0.04122223 0.20893781 -0.74199998 0.36091673 0.50179482 0.78609228 0.053768262
-0.033982303 0.20743459 -0.7424705 0.38990164 0.48354167 0.78368628 0.065836325
-0.024720306 0.20501922 -0.74463636 0.34514788 0.37211579 0.861628 0.084387571
-0.01608241 0.20277524 -0.74789482 0.38531873 0.20208362 0.90038413 0.066106036
-0.06006667 0.21977331 -0.74199998 0.29122138 0.5160833 0.80551112 0.0058605894
-0.053488493 0.21819803 -0.74225008 0.2648952 0.52208114 0.81071693 0.0039744093
-0.044169698 0.21545218 -0.74346161 0.37713918 0.51859504 0.76734948 0.072504558
-0.035091788 0.21418905 -0.74517512 0.32857984 0.50441372 0.79849982 0.069626376
-0.026245326 0.21278484 -0.74723536 0.29055768 0.42294529 0.85830849 0.075906396
-0.064950436 0.22644834 -0.74313653 0.30662885 0.49730182 0.81158465 0.0069165919
-0.05490569 0.22384326 -0.74550003 0.26538423 0.52428961 0.80913019 0.0051646205
-0.045838941 0.2226451 -0.74688894 0.37061229 0.46497631 0.80401719 0.097024553
-0.038468577 0.2208381 -0.74800003 0.32050624 0.48690072 0.81252897 0.075050898
-0.061318621 0.22293185 -0.74613565 0.29255864 0.51429546 0.80616969 0.0061421227
-0.05796231 0.21937421 -0.74847257 0.26664412 0.52459288 0.80851918 0.0056593278
-0.056368887 0.099567518 -0.79359818 0.26114029 -0.96441346 0.041381966 0.2123291
-0.07423532 0.12616962 -0.79095119 0.052464828 -0.76801217 0.63828278 0.18138857
-0.078024946 0.094660737 -0.80211955 -0.093758084 -0.92297739 0.37325877 0.21360551
-0.054077931 0.057079609 -0.83554566 -0.64375007 -0.31292412 0.69832969 0.096851029
-0.058948088 0.069043547 -0.82101047 -0.83147871 -0.42061064 0.362946 0.13477227
-0.088022955 0.061580114 -0.85644138 -0.30499783 0.79252386 0.52809304 0.078921057
-0.065121055 0.12750711 -0.7390399 0.04321276 -0.49715242 0.86658657 0.066494778
-0.059904762 0.1289714 -0.74000001 0.2132287 -0.51983255 0.82722884 0.067080468
-0.072841361 0.13594721 -0.73757696 -0.33978549 -0.52151197 0.78266919 0.066439062
-0.065246634 0.13492449 -0.73577768 -0.035127688 -0.55920833 0.82828259 0.074728251
-0.057200935 0.1353607 -0.73839998 0.31984466 -0.47809076 0.81800282 0.06852597
-0.081530295 0.14583091 -0.73972732 -0.58145827 -0.46620449 0.66675299 0.063787632
-0.075476311 0.14421451 -0.73502129 -0.39032769 -0.51986837 0.75985593 0.082688138
-0.064326145 0.14324404 -0.73165745 0.14335956 -0.54476535 0.82624376 0.092480831
-0.055130523 0.14503302 -0.73501652 0.42127079 -0.49303564 0.76121408 0.055321764
-0.048332248 0.14781362 -0.73857147 0.53422219 -0.44579941 0.71824062 0.038141403
-0.083373904 0.15588701 -0.7373333 -0.63640887 -0.42988747 0.64045334 0.043571837
-0.078086749 0.15347274 -0.73392874 -0.49970749 -0.48148668 0.72004372 0.064381443
-0.05333386 0.15386255 -0.73151857 0.46676975 -0.44458467 0.7645067 0.038220018
-0.045374483 0.15540977 -0.73681808 0.58087748 -0.39430994 0.71211022 0.052216064
-0.03876191 0.1592762 -0.74000001 0.59068763 -0.37825009 0.71275169 0.051401999
-0.091261268 0.16797462 -0.73900002 -0.76338971 -0.25951043 0.59151542 0.0084976712
-0.085961886 0.16417655 -0.73415631 -0.698201 -0.30263463 0.64878935 0.013541525
-0.0508219 0.16082001 -0.73100001 0.50256628 -0.39615402 0.76843292 0.058439314
-0.043867882 0.16443689 -0.73421264 0.58664358 -0.34812871 0.73120153 0.052880418
-0.036560286 0.16681181 -0.73881483 0.58917391 -0.36040413 0.72317559 0.050755117
-0.092886083 0.1753981 -0.73669231 -0.78940922 -0.15144221 0.59489352 0.01623483
-0.089065045 0.1744471 -0.73142868 -0.74171245 -0.16110104 0.65108305 0.021886045
-0.04218946 0.17343561 -0.73135728 0.56999487 -0.17125118 0.80360371 0.04766592
-0.035228953 0.17492166 -0.73606652 0.59150374 -0.220181 0.77565688 0.040796388
-0.028412381 0.17681493 -0.73966664 0.60072881 -0.20971294 0.7714566 0.01129284
-0.094321355 0.1849549 -0.73676473 -0.80490035 0.00052123272 0.59340978 0.035449505
-0.087921016 0.18547474 -0.73164713 -0.71515191 0.046739738 0.69740456 0.05844824
-0.041075241 0.18727523 -0.73100007 0.4997313 0.081555821 0.86233252 0.049544606
-0.034657832 0.18481342 -0.73369497 0.54795265 -0.011476896 0.83643049 0.020460749
-0.026627148 0.18597427 -0.73880768 0.55854207 -0.051319066 0.82788712 0.022202086
-0.092393339 0.19158477 -0.73866671 -0.78150094 0.056608316 0.62133074 0.045492798
-0.088045605 0.19310655 -0.73662496 -0.7408278 0.13873404 0.6572116 0.0683873
-0.044035569 0.19562142 -0.73178142 0.3881776 0.3207691 0.86395907 0.043864306
-0.035192739 0.19497415 -0.7356599 0.4825263 0.20750475 0.85094661 0.020243049
-0.025986863 0.19366746 -0.73889655 0.50085962 0.1267812 0.85619283 0.024312098
-0.071739689 0.20964888 -0.73133337 0.010058433 0.54535472 0.83814502 0.10732463
-0.063992202 0.20682548 -0.73157716 0.28803927 0.47630787 0.83076125 0.048283428
