# .PCD v0.7 - Point Cloud Data file format
VERSION 0.7
FIELDS x y z normal_x normal_y normal_z curvature
SIZE 4 4 4 4 4 4 4
TYPE F F F F F F F
COUNT 1 1 1 1 1 1 1
WIDTH 579
HEIGHT 1
VIEWPOINT 0 0 0 1 0 0 0
POINTS 579
DATA ascii
-0.05336 0.0348 -0.81199998 0.36034417 -0.61421126 0.70206589 0.044445787
-0.075786665 0.037120007 -0.81199998 -0.3983123 -0.62778026 0.66875952 0.05913154
-0.074057147 0.03702857 -0.81000012 -0.32504159 -0.63662124 0.6993292 0.065279186
-0.054771431 0.03702857 -0.81000012 0.32654279 -0.6144045 0.71824574 0.045467742
-0.05329429 0.037073337 -0.81100005 0.35871282 -0.60934371 0.70712471 0.04268048
-0.078106657 0.040986668 -0.81199998 -0.47949284 -0.58371478 0.65525854 0.044270493
-0.076371431 0.040114291 -0.81000012 -0.41970968 -0.59683728 0.68383402 0.052130178
-0.052285083 0.039923176 -0.81133336 0.38534883 -0.59245813 0.70745999 0.036416221
-0.050266668 0.040986668 -0.81199998 0.43794322 -0.56639683 0.69814068 0.027122391
-0.081200004 0.04408 -0.81199998 -0.56739265 -0.52847707 0.63148832 0.027509307
-0.078781903 0.043252386 -0.81100005 -0.50051898 -0.55567968 0.66385299 0.040638082
-0.051685721 0.042428579 -0.81000012 0.40527484 -0.56866598 0.71580118 0.031678073
-0.049462382 0.043279529 -0.81150001 0.46338472 -0.54372656 0.69973999 0.020482901
-0.047173329 0.04408 -0.81199998 0.50305545 -0.52244025 0.68847036 0.012964432
-0.084293343 0.047173329 -0.81199998 -0.63213009 -0.47628525 0.61119866 0.014040302
-0.082644761 0.046341904 -0.81100005 -0.59739816 -0.49966756 0.62725419 0.020033209
-0.081 0.045514289 -0.81000012 -0.55558723 -0.52494532 0.64479089 0.028288664
-0.046066038 0.046066038 -0.81066674 0.51870894 -0.50884336 0.68703675 0.0094317086
-0.04356445 0.046657778 -0.81199998 0.55472094 -0.49017724 0.67231768 0.004576521
-0.084670484 0.049669843 -0.81066674 -0.64268684 -0.46526828 0.60866982 0.012052638
-0.082542859 0.048599999 -0.81000012 -0.60336894 -0.48837626 0.63042408 0.018660476
-0.045514289 0.048599999 -0.81000012 0.53236639 -0.49488407 0.68678647 0.0063931341
-0.043226197 0.049401429 -0.81050009 0.56018621 -0.48211163 0.67361701 0.0041546505
-0.040986668 0.050266668 -0.81199998 0.5797466 -0.47444007 0.66242015 0.003404075
-0.087386668 0.05336 -0.81199998 -0.6986981 -0.43045777 0.5714255 0.0043318807
-0.085184775 0.052242547 -0.81066674 -0.65814531 -0.45116219 0.6027416 0.010230481
-0.042428579 0.05245715 -0.81000012 0.57374823 -0.47317138 0.66852212 0.0032741488
-0.040986668 0.052586667 -0.81199998 0.58437848 -0.46905136 0.66218776 0.00273674
-0.088052385 0.055612378 -0.81100005 -0.7052812 -0.42358628 0.56846559 0.0039379043
-0.040162861 0.055612378 -0.81100005 0.58829033 -0.46792781 0.65951347 0.0027626248
-0.090368584 0.058700003 -0.81100005 -0.72641814 -0.40792909 0.55309182 0.0028833407
-0.088714287 0.057857141 -0.81000012 -0.71163124 -0.41618669 0.56601191 0.0034746949
-0.039342862 0.057857141 -0.81000012 0.59044605 -0.46564329 0.65920377 0.0026577336
-0.036832385 0.058466669 -0.81133336 0.60209554 -0.46268922 0.65069163 0.0033585464
-0.0348 0.059546672 -0.81199998 0.60918283 -0.46000472 0.64598137 0.0030743626
-0.092026673 0.06109333 -0.81199998 -0.74018663 -0.39695913 0.54272205 0.0024725511
-0.033983812 0.061018094 -0.81100005 0.60910946 -0.45996246 0.64608055 0.0024054041
-0.030894291 0.062562861 -0.81100005 0.61887121 -0.45493963 0.64033455 0.0030849425
-0.093573339 0.064960003 -0.81199998 -0.75253814 -0.3845956 0.53457713 0.0019280001
-0.03008572 0.064800009 -0.81000012 0.62277263 -0.45079938 0.63947964 0.0032628919
-0.028613331 0.064960003 -0.81199998 0.62793469 -0.44915581 0.63557613 0.0030977165
-0.096666671 0.068826668 -0.81199998 -0.76324707 -0.37342629 0.52726352 0.0015775616
-0.094172865 0.067927137 -0.81050009 -0.75577861 -0.3789908 0.53400809 0.0019767084
-0.027788099 0.067927144 -0.81050009 0.63057089 -0.44499829 0.6358906 0.0029173729
-0.025520001 0.068826668 -0.81199998 0.63739884 -0.44152001 0.63149244 0.0030548237
-0.097102866 0.071345404 -0.81133336 -0.76714766 -0.3685337 0.52504027 0.0017789302
-0.094885707 0.070200004 -0.81000012 -0.75988805 -0.37262371 0.53265536 0.0019765121
-0.027000001 0.070200004 -0.81000012 0.633443 -0.4420673 0.63507992 0.002849041
-0.025520001 0.071146674 -0.81199998 0.63966894 -0.43816698 0.63153249 0.002993674
-0.097537786 0.073860332 -0.81066674 -0.76892751 -0.36449391 0.52525675 0.0019675207
-0.02545714 0.073285721 -0.81000012 0.64122254 -0.43719971 0.6306268 0.0025728878
-0.099637151 0.077237144 -0.81100005 -0.77647889 -0.35571116 0.52014428 0.0019075915
-0.097971439 0.076371431 -0.81000012 -0.77079505 -0.35951349 0.52595162 0.0018645742
-0.02548857 0.075692385 -0.81100005 0.64427722 -0.43554416 0.62865585 0.0028316791
-0.023943812 0.077237144 -0.81100005 0.64639461 -0.43106982 0.6295656 0.0027241763
-0.10070923 0.079072386 -0.81133336 -0.78167695 -0.35059917 0.51581126 0.0017907701
-0.02242667 0.078106657 -0.81199998 0.65093631 -0.42818144 0.62685138 0.002832073
-0.020106666 0.079653338 -0.81199998 0.65296078 -0.42411593 0.6275093 0.0025801137
-0.10062604 0.081580959 -0.81066674 -0.78349012 -0.34822357 0.51466829 0.0018496951
-0.02008095 0.081872389 -0.81100005 0.65609568 -0.42041472 0.62672961 0.0025959474
-0.10272665 0.08496096 -0.81100005 -0.78842276 -0.34294072 0.51066738 0.0016035275
-0.1010571 0.084085733 -0.81000012 -0.78442943 -0.34536064 0.51516646 0.0018037112
-0.01928572 0.084085733 -0.81000012 0.65696698 -0.41792807 0.62747937 0.0026126155
-0.01778667 0.085066676 -0.81199998 0.65281779 -0.41800705 0.63174284 0.0024008185
-0.1059467 0.088933326 -0.81199998 -0.79709911 -0.33472902 0.50258279 0.0013339351
-0.1038 0.087830484 -0.81133336 -0.79319549 -0.33768132 0.50676644 0.0015688278
-0.01697143 0.087942868 -0.81000012 0.65283227 -0.42328286 0.62820512 0.0025028219
-0.01469333 0.088933326 -0.81199998 0.63438982 -0.42173862 0.64783186 0.0057377773
-0.10637524 0.091435567 -0.81133336 -0.79815263 -0.33506367 0.50068426 0.0015026166
-0.1041429 0.090257153 -0.81000012 -0.79415232 -0.33711514 0.50564373 0.001632164
-0.013901904 0.091140963 -0.81100005 0.63797694 -0.42840353 0.63988727 0.0039888388
-0.0116 0.092026673 -0.81199998 0.61880553 -0.42484272 0.66074842 0.0083018914
-0.1072286 0.094114289 -0.81000012 -0.79832786 -0.334016 0.50110483 0.0015779575
-0.01311429 0.094114289 -0.81000012 0.63829368 -0.43659776 0.63400596 0.003186313
-0.011084444 0.094604455 -0.81199998 0.62160295 -0.43008208 0.65470535 0.0059832977
-0.10904 0.097440004 -0.81199998 -0.79064578 -0.34207034 0.50780618 0.0031801034
-0.1072286 0.096428581 -0.81000012 -0.79800385 -0.33556545 0.50058544 0.0017457636
-0.01005333 0.096666671 -0.81199998 0.62258798 -0.43601334 0.64982808 0.0052963407
-0.10967905 0.10040952 -0.81100005 -0.7872929 -0.34297234 0.51238656 0.0037149661
-0.01004095 0.10040855 -0.81100005 0.6285646 -0.43947944 0.6416887 0.0031709787
-0.0085066669 0.10053335 -0.81199998 0.62366033 -0.43657666 0.6484201 0.0042707659
-0.1103143 0.10337145 -0.81000012 -0.78081822 -0.3449221 0.5209142 0.0049368558
-0.0074628582 0.10319873 -0.81066674 0.62807077 -0.43784472 0.64328772 0.0036194976
-0.0043822224 0.10388444 -0.81199998 0.62133873 -0.43498775 0.65170836 0.0047257585
-0.006942858 0.1056857 -0.81000012 0.62959355 -0.44110048 0.63956422 0.003380927
-0.0046319049 0.1065224 -0.81050009 0.62861294 -0.44156304 0.64020926 0.0035418787
-0.00232 0.10672 -0.81199998 0.6243816 -0.44117326 0.64460367 0.003781033
-0.0012869844 0.10946604 -0.81133336 0.62442285 -0.44578415 0.64138329 0.0033598412
-0.00077142857 0.1118572 -0.81000012 0.62347776 -0.44605529 0.6421138 0.003402014
0.0015466667 0.11290665 -0.81199998 0.61674279 -0.44842407 0.64694989 0.0030795729
-0.11368 0.1152267 -0.81199998 -0.76015306 -0.35524136 0.54403204 0.0084547326
0.0023171431 0.1158562 -0.81100005 0.61396205 -0.45129099 0.64760095 0.0034240745
0.0038666669 0.116 -0.81199998 0.6102922 -0.45292407 0.64992559 0.0034662834
-0.1149429 0.1195714 -0.81000012 -0.75494576 -0.36056826 0.54776585 0.0085654818
0.0043758731 0.11915557 -0.81066674 0.60404581 -0.45667294 0.65312982 0.0031004311
-0.11832 0.12218665 -0.81199998 -0.73852432 -0.36993277 0.56367683 0.0096694008
-0.1164857 0.12188575 -0.81000012 -0.74723262 -0.3614246 0.5576877 0.0088310195
0.0046352381 0.1212638 -0.81100005 0.59903365 -0.45927399 0.65591627 0.003179901
0.0077333339 0.12218665 -0.81199998 0.59501791 -0.46369207 0.65646279 0.0039985105
0.01005333 0.12218665 -0.81199998 0.59509307 -0.46235186 0.65733933 0.0041123861
-0.11864131 0.12481654 -0.81066674 -0.73722887 -0.36265317 0.57006699 0.009509895
-0.11894765 0.12744191 -0.81100005 -0.73345107 -0.36047807 0.5762856 0.0095523391
-0.11933335 0.13053143 -0.81100005 -0.73288649 -0.36094877 0.57670909 0.0083060302
-0.1214133 0.13301334 -0.81199998 -0.729855 -0.36533028 0.57779366 0.0091418726
-0.1195714 0.13345709 -0.81000012 -0.74567503 -0.36420363 0.55796444 0.0057720607
-0.12203715 0.13516665 -0.81100005 -0.73138171 -0.36891538 0.57356977 0.0074392161
-0.1260533 0.13842671 -0.81199998 -0.72556084 -0.37034944 0.58000243 0.0076965359
-0.1242 0.13808569 -0.81000012 -0.73886609 -0.36390629 0.56714112 0.0064450507
-0.067718104 0.028472381 -0.80800003 -0.10628214 -0.69124955 0.71475738 0.074386783
-0.06464 0.028472381 -0.80800003 0.022671817 -0.69882745 0.71493089 0.069822401
-0.070026673 0.031550478 -0.80800003 -0.17018743 -0.6790778 0.71406549 0.074609667
-0.067718104 0.03001143 -0.80800003 -0.10086194 -0.69301683 0.71383095 0.074129798
-0.06464 0.030780954 -0.80800003 0.027568985 -0.67740428 0.73509419 0.07006374
-0.061818413 0.031037463 -0.80800003 0.11489461 -0.67218435 0.73141474 0.066519842
-0.070796192 0.033859044 -0.80800003 -0.19487843 -0.66199416 0.72373074 0.071852028
-0.061561905 0.033089519 -0.80800003 0.12128986 -0.65835994 0.74286675 0.064896293
-0.058740318 0.034115553 -0.80800003 0.19984896 -0.65087622 0.73240733 0.058433823
-0.057714291 0.036167622 -0.80800003 0.23264877 -0.63734198 0.73462218 0.05596992
-0.056175239 0.036937147 -0.80800003 0.28375402 -0.62123924 0.73044193 0.049078047
-0.074643813 0.03924571 -0.80800003 -0.34307826 -0.61130798 0.71316189 0.059785806
-0.054636199 0.040015236 -0.80800003 0.33213878 -0.60171884 0.72637331 0.042547654
-0.05309714 0.040784761 -0.80800003 0.37013149 -0.58162344 0.72437352 0.036184557
-0.076952383 0.043093335 -0.80800003 -0.4351294 -0.56686538 0.69951844 0.047859047
-0.052327618 0.043093335 -0.80800003 0.39118493 -0.56713152 0.72480088 0.031609658
-0.080030479 0.046171427 -0.80800003 -0.52869469 -0.52183044 0.66945869 0.030603329
-0.048993018 0.045914918 -0.80800003 0.46812364 -0.52530324 0.71057498 0.016758095
-0.046940949 0.046940949 -0.80800003 0.50364763 -0.50779378 0.69891667 0.011197254
-0.082339048 0.050019048 -0.80800003 -0.59119618 -0.48327494 0.64570296 0.019454459
-0.04848 0.04848 -0.80800003 0.48077947 -0.51155728 0.71215189 0.014229684
-0.046427935 0.049506035 -0.80800003 0.51861948 -0.49319044 0.6984247 0.0073634586
-0.083108574 0.052327618 -0.80800003 -0.60791504 -0.46923968 0.64051032 0.016493158
-0.045401901 0.0515581 -0.80800003 0.53260064 -0.48734015 0.69197977 0.0063675987
-0.043862861 0.052327618 -0.80800003 0.55158061 -0.48032662 0.68194216 0.0041986173
-0.086186662 0.055405721 -0.80800003 -0.66380876 -0.44013509 0.60468102 0.0083648004
-0.042323809 0.054636199 -0.80800003 0.57096577 -0.47292799 0.67107177 0.0029324025
-0.040784761 0.056175239 -0.80800003 0.57906663 -0.470184 0.66603971 0.0030063177
-0.08849524 0.059253331 -0.80800003 -0.70261139 -0.41852453 0.57547772 0.0041412273
-0.086956188 0.057714291 -0.80800003 -0.68196654 -0.42989686 0.59170133 0.0061870399
-0.040015236 0.058483809 -0.80800003 0.58367616 -0.46900952 0.66283643 0.0024728726
-0.037706669 0.059253331 -0.80800003 0.59303319 -0.4642162 0.65788674 0.0020583954
-0.090803817 0.061561905 -0.80800003 -0.72605491 -0.40348685 0.55681473 0.0030454015
-0.036937147 0.060792379 -0.80800003 0.59719336 -0.46394512 0.65430492 0.0024726326
-0.033859044 0.062331431 -0.80800003 0.60733402 -0.45890814 0.64849716 0.0028136671
-0.091573343 0.06464 -0.80800003 -0.73181254 -0.3957074 0.55485678 0.0026332918
-0.033602536 0.064383492 -0.80800003 0.611157 -0.45620969 0.64680737 0.0025551275
-0.031550478 0.06464 -0.80800003 0.615493 -0.45257357 0.64524847 0.0025579063
-0.030780954 0.067718104 -0.80800003 0.61973768 -0.44970813 0.64318562 0.0022228614
-0.094651431 0.071565717 -0.80800003 -0.75557482 -0.37304711 0.53846306 0.0018651667
-0.028472381 0.070796192 -0.80800003 0.62772202 -0.44500434 0.63869882 0.0024926616
-0.026933329 0.071565717 -0.80800003 0.63340586 -0.44204134 0.63513499 0.0025994743
-0.096190467 0.074643813 -0.80800003 -0.7636565 -0.36527443 0.53235626 0.0019230761
-0.094651431 0.073104762 -0.80800003 -0.75805449 -0.36984289 0.53718686 0.0019643833
-0.028472381 0.073104762 -0.80800003 0.63092798 -0.44264045 0.63718081 0.0023835294
-0.026933329 0.073874287 -0.80800003 0.63519251 -0.44083202 0.63419056 0.002668774
-0.096703492 0.077208892 -0.80800003 -0.76685429 -0.36037746 0.53109562 0.0017561968
-0.026163809 0.076952383 -0.80800003 0.64238501 -0.43473896 0.63114464 0.0027990004
-0.097729526 0.080030479 -0.80800003 -0.77031064 -0.35572389 0.52922779 0.001531142
-0.022829205 0.079773977 -0.80800003 0.65111744 -0.42487773 0.62890786 0.0028099308
-0.099268571 0.082339048 -0.80800003 -0.77670974 -0.35137177 0.52274263 0.0017362651
-0.022316189 0.083108574 -0.80800003 0.65521246 -0.42022663 0.62777877 0.0022619115
-0.02077714 0.0838781 -0.80800003 0.65597391 -0.42003638 0.62711066 0.0018531962
-0.1008076 0.086186662 -0.80800003 -0.78295374 -0.3439163 0.51836759 0.0018609589
-0.019238099 0.086186662 -0.80800003 0.6579656 -0.41965848 0.62527436 0.0018394472
-0.1023467 0.08849524 -0.80800003 -0.7871328 -0.34032071 0.51439655 0.0017606027
-0.1008076 0.08849524 -0.80800003 -0.78570122 -0.34115392 0.51603061 0.0017931263
-0.019238099 0.08849524 -0.80800003 0.65685487 -0.42379308 0.62365144 0.0019072443
-0.01769905 0.08849524 -0.80800003 0.65601486 -0.42399228 0.62439978 0.0019267256
-0.1031162 0.090803817 -0.80800003 -0.78946072 -0.33816478 0.51224643 0.0016605096
-0.016673017 0.090547308 -0.80800003 0.65320909 -0.4277955 0.6247471 0.0021356852
-0.1054248 0.093881905 -0.80800003 -0.79411972 -0.33341056 0.50814509 0.0017134985
-0.01616 0.093881905 -0.80800003 0.65016317 -0.43209356 0.62496644 0.0019623579
-0.01462095 0.093881905 -0.80800003 0.64558607 -0.43392441 0.62843311 0.002342823
-0.1061943 0.096959993 -0.80800003 -0.79487795 -0.33393145 0.50661498 0.0018216416
-0.0130819 0.096959993 -0.80800003 0.63908124 -0.43775812 0.63241041 0.0020329612
-0.01154286 0.096959993 -0.80800003 0.63630217 -0.43766081 0.63527358 0.0022381789
-0.01154286 0.10003808 -0.80800003 0.63625115 -0.43905842 0.63435966 0.0025163693
-0.1085029 0.1031162 -0.80800003 -0.79072553 -0.33678177 0.51120567 0.0027491341
-0.010516826 0.10285971 -0.80800003 0.6347149 -0.43897745 0.63595265 0.0027983147
-0.008464762 0.1038857 -0.80800003 0.63178706 -0.44041476 0.6378715 0.0030284291
-0.1095289 0.1059378 -0.80800003 -0.78257841 -0.34035698 0.52127558 0.0043264274
-0.0076952386 0.1061943 -0.80800003 0.63027233 -0.44164029 0.63852227 0.0027338655
-0.111581 0.10927241 -0.80800003 -0.77442181 -0.34369352 0.53117377 0.0054473332
-0.0069257151 0.1085029 -0.80800003 0.62971544 -0.44258073 0.63842058 0.0030097193
-0.0048736511 0.1090159 -0.80800003 0.62854481 -0.44313347 0.63919026 0.0028079611
-0.002308571 0.1100419 -0.80800003 0.62648612 -0.44526038 0.63973302 0.003083071
-0.111581 0.111581 -0.80800003 -0.77466941 -0.34410703 0.5305447 0.005395948
-0.0053866669 0.111581 -0.80800003 0.62783825 -0.44365126 0.63952529 0.0028530431
-0.0015390473 0.11235049 -0.80800003 0.62660849 -0.44344604 0.64087242 0.0030501732
0.00076952379 0.11312 -0.80800003 0.6232394 -0.44524154 0.64290941 0.0035637445
-0.11312 0.1161981 -0.80800003 -0.76831889 -0.35166198 0.5348084 0.0066028475
0.00076952379 0.11542855 -0.80800003 0.62018037 -0.44741526 0.64435691 0.0032163288
0.002308571 0.11850666 -0.80800003 0.61090702 -0.45168257 0.65021187 0.0031970437
0.002308571 0.1208152 -0.80800003 0.60661131 -0.45421585 0.65246499 0.0033731689
0.004617143 0.1223543 -0.80800003 0.59743267 -0.45842436 0.65796763 0.0032361776
-0.1161981 0.12466285 -0.80800003 -0.75027335 -0.35454732 0.55801976 0.0070695383
0.0076952381 0.12466285 -0.80800003 0.58969152 -0.46461177 0.66060567 0.0038167089
0.01000381 0.12466285 -0.80800003 0.58897936 -0.46500224 0.66096616 0.0036658689
-0.1161981 0.12774095 -0.80800003 -0.75726897 -0.35679311 0.54703063 0.0055607562
-0.1177371 0.13158859 -0.80800003 -0.75567192 -0.35934925 0.54756564 0.0049490435
-0.1192762 0.1346667 -0.80800003 -0.7554732 -0.36145112 0.5464552 0.0048458129
-0.1223543 0.1362057 -0.80800003 -0.74797374 -0.36098987 0.55697548 0.0054141842
-0.1254324 0.14005336 -0.80800003 -0.75266618 -0.35381863 0.55525315 0.0058863778
-0.067550473 0.031472381 -0.80600011 -0.070226945 -0.6680721 0.74077517 0.070346676
-0.067550473 0.033007622 -0.80600011 -0.086472876 -0.66254848 0.74401075 0.072163396
-0.064479999 0.03377524 -0.80600011 0.030774534 -0.66349173 0.74755043 0.066722684
-0.061409526 0.034542859 -0.80600011 0.12373759 -0.64534158 0.75380594 0.062031627
-0.072923817 0.03761334 -0.80600011 -0.28039375 -0.6153506 0.73669732 0.061490636
-0.070620961 0.036078099 -0.80600011 -0.20741051 -0.63604921 0.74325109 0.068156585
-0.061153658 0.036589846 -0.80600011 0.13502267 -0.64696723 0.75046796 0.061719291
-0.058594923 0.037101593 -0.80600011 0.19962473 -0.63124073 0.74945658 0.05737393
-0.074459054 0.04068381 -0.80600011 -0.33431357 -0.60245234 0.72476602 0.056368466
-0.058339052 0.039148569 -0.80600011 0.21158314 -0.62177122 0.75407767 0.055613071
-0.056036189 0.039916188 -0.80600011 0.28488752 -0.60117102 0.74661404 0.047529604
-0.074459054 0.04221905 -0.80600011 -0.33701819 -0.58917391 0.73436552 0.057831865
-0.05450096 0.04221905 -0.80600011 0.33085585 -0.58480543 0.74063295 0.039881594
-0.052965719 0.043754291 -0.80600011 0.38143334 -0.55919582 0.73607653 0.030877838
-0.079064757 0.046824761 -0.80600011 -0.49322996 -0.52839088 0.69103354 0.03482601
-0.049895242 0.046824761 -0.80600011 0.45058024 -0.5252282 0.72188145 0.01883853
-0.080600001 0.049127623 -0.80600011 -0.54065108 -0.50185949 0.67515439 0.027959839
-0.049127623 0.049127623 -0.80600011 0.46948466 -0.5105145 0.72038817 0.014901838
-0.082135238 0.052965719 -0.80600011 -0.58395952 -0.4756074 0.6578669 0.019191401
-0.048360001 0.051430479 -0.80600011 0.48340017 -0.50153846 0.71748406 0.011830017
-0.046313018 0.052453972 -0.80600011 0.51985079 -0.48891976 0.70050871 0.0067293835
-0.085205719 0.056036189 -0.80600011 -0.64430916 -0.44402334 0.6226629 0.010460338
-0.083670482 0.05450096 -0.80600011 -0.61562204 -0.45986262 0.63994992 0.014481607
-0.045289531 0.05450096 -0.80600011 0.53353304 -0.4847661 0.69306874 0.0060247821
-0.043242544 0.05552445 -0.80600011 0.55343008 -0.47744879 0.68246448 0.0036826695
-0.085973337 0.058339052 -0.80600011 -0.65889376 -0.43803665 0.61154145 0.0085289702
-0.04068381 0.05910667 -0.80600011 0.57801247 -0.47036731 0.66682541 0.0020458745
-0.089043811 0.061409526 -0.80600011 -0.70356083 -0.4119249 0.5790683 0.0032858057
-0.039148569 0.060641911 -0.80600011 0.58595383 -0.46778119 0.66169387 0.0020324113
-0.036845721 0.06217714 -0.80600011 0.5952934 -0.46402302 0.65597886 0.0020429664
-0.089811437 0.064479999 -0.80600011 -0.71862638 -0.39952222 0.56917328 0.002443115
-0.036589846 0.064224124 -0.80600011 0.60048443 -0.46131918 0.65314853 0.0025809724
-0.034542859 0.065247618 -0.80600011 0.60650051 -0.45671219 0.65082335 0.0022609404
-0.091346674 0.066782847 -0.80600011 -0.72884631 -0.39234883 0.56111091 0.0023321742
-0.036078099 0.067550473 -0.80600011 0.60721844 -0.45723557 0.64978564 0.0027511418
-0.03377524 0.067550473 -0.80600011 0.61327386 -0.45377517 0.64651626 0.0023365181
-0.092881911 0.069853343 -0.80600011 -0.74255592 -0.38014722 0.5514515 0.0019346758
-0.033007622 0.069853343 -0.80600011 0.61671174 -0.45197079 0.64450687 0.0024006267
-0.031472381 0.070620961 -0.80600011 0.62055212 -0.44972816 0.6423859 0.0024251323
-0.029937141 0.070620961 -0.80600011 0.62312514 -0.44847876 0.64076668 0.0023932669
-0.094417147 0.074459054 -0.80600011 -0.75199777 -0.36957502 0.54581475 0.0016199998
-0.031472381 0.072923817 -0.80600011 0.62308753 -0.44728941 0.64163399 0.0023286508
-0.029169526 0.073691435 -0.80600011 0.62721461 -0.44382614 0.64001572 0.0022201124
-0.026866671 0.077529527 -0.80600011 0.63890076 -0.43500164 0.63449144 0.0025735572
-0.095952377 0.079832375 -0.80600011 -0.76393944 -0.35759929 0.53713989 0.0012604969
-0.02533143 0.079064757 -0.80600011 0.64484018 -0.42895654 0.63259584 0.002330194
-0.02379619 0.080600001 -0.80600011 0.64926416 -0.42572594 0.63024873 0.0024063897
-0.099022873 0.083670482 -0.80600011 -0.77384758 -0.35060763 0.52747911 0.0015634841
-0.097487628 0.082902864 -0.80600011 -0.76937795 -0.35456568 0.53135753 0.0012117034
-0.095952377 0.082135238 -0.80600011 -0.76620638 -0.35634488 0.53473932 0.0011838675
-0.02379619 0.082902864 -0.80600011 0.6506415 -0.42417282 0.62987548 0.002385891
-0.099022873 0.085205719 -0.80600011 -0.77505165 -0.34877944 0.52692294 0.0015146506
-0.022260951 0.085205719 -0.80600011 0.65358102 -0.42161864 0.62854558 0.0016283789
-0.02072572 0.085973337 -0.80600011 0.65577275 -0.42145661 0.62636763 0.0016048409
-0.1005581 0.089811437 -0.80600011 -0.78307319 -0.34193093 0.51949948 0.001629921
-0.020213973 0.089299694 -0.80600011 0.65667516 -0.42488253 0.62309915 0.0017070322
-0.1036286 0.092881911 -0.80600011 -0.78978497 -0.33613274 0.51308334 0.0017545525
-0.019190479 0.091346674 -0.80600011 0.65594971 -0.42802411 0.62171155 0.001847083
-0.01765524 0.092114292 -0.80600011 0.65517968 -0.42996156 0.62118649 0.0019773534
-0.1036286 0.095184758 -0.80600011 -0.79081202 -0.33519459 0.51211423 0.0016462958
-0.01688762 0.095184758 -0.80600011 0.65146619 -0.43234736 0.62343204 0.0019977207
-0.01458476 0.095952377 -0.80600011 0.6458782 -0.43460074 0.62766522 0.0016543391
-0.1051638 0.097487628 -0.80600011 -0.79330623 -0.33585396 0.50780636 0.0017014883
-0.01458476 0.097487628 -0.80600011 0.64333737 -0.43583021 0.62941957 0.0017532816
-0.10618727 0.099534616 -0.80600011 -0.79378992 -0.33457753 0.50789315 0.0016566084
-0.013561266 0.099534616 -0.80600011 0.63953316 -0.43688008 0.63256079 0.0025957595
-0.106699 0.1020933 -0.80600011 -0.79428518 -0.3356193 0.50642926 0.0016307575
-0.01304952 0.1036286 -0.80600011 0.63715333 -0.43632525 0.63533914 0.0020348346
-0.01151429 0.1036286 -0.80600011 0.6359818 -0.43721622 0.63590014 0.0022519561
-0.010490796 0.10567554 -0.80600011 0.63274205 -0.43938604 0.63763422 0.0020775099
-0.00844381 0.106699 -0.80600011 0.63192034 -0.43953758 0.63834441 0.0027185851
-0.1097695 0.1090019 -0.80600011 -0.7854178 -0.33875766 0.5180369 0.0035404619
-0.0076761907 0.1090019 -0.80600011 0.62986726 -0.44194165 0.63871336 0.0027506489
-0.0038380951 0.1097695 -0.80600011 0.62764311 -0.4440951 0.63940889 0.0027892545
-0.1113048 0.11284 -0.80600011 -0.7768901 -0.34215009 0.52855957 0.0047839792
-0.0069085718 0.1113048 -0.80600011 0.6272049 -0.44363037 0.64016098 0.0016922872
-0.0038380951 0.1113048 -0.80600011 0.62688029 -0.44315431 0.64080828 0.0025551443
-0.0023028571 0.11284 -0.80600011 0.62678224 -0.44303551 0.64098638 0.002770443
-0.1113048 0.1143752 -0.80600011 -0.7747373 -0.34303352 0.53114045 0.0049487581
-0.00076761912 0.11514285 -0.80600011 0.62413609 -0.44445094 0.64258665 0.0028415774
-0.11284 0.11821335 -0.80600011 -0.76902008 -0.35258099 0.53319287 0.0054548224
-0.00076761912 0.11821335 -0.80600011 0.6197142 -0.44574389 0.64596188 0.0030359079
0.00076761912 0.11821335 -0.80600011 0.61874181 -0.44725791 0.6458475 0.0033118913
-0.1143752 0.1205162 -0.80600011 -0.76551223 -0.35315254 0.53784239 0.0061876881
0.0012793652 0.12153967 -0.80600011 0.61253518 -0.44889346 0.65061152 0.0036493209
0.0048615877 0.12409844 -0.80600011 0.59402186 -0.45799062 0.66134912 0.0034681596
0.005373334 0.1266571 -0.80600011 0.58846319 -0.46178499 0.66367596 0.0037340862
0.0076761907 0.12742475 -0.80600011 0.5875212 -0.4628863 0.66374326 0.0034964923
0.0099790478 0.12742475 -0.80600011 0.58692271 -0.4643693 0.66323668 0.003859459
-0.1159105 0.1297276 -0.80600011 -0.76441473 -0.35742667 0.5365783 0.0044921329
0.00844381 0.1297276 -0.80600011 0.58555937 -0.46369639 0.66491044 0.0041530505
0.010746669 0.13049525 -0.80600011 0.58329564 -0.46499106 0.66599512 0.0044016871
-0.1174457 0.13279811 -0.80600011 -0.76370549 -0.36030263 0.53566408 0.0044868561
-0.1212838 0.1366362 -0.80600011 -0.7605713 -0.35402152 0.54424274 0.0048078531
-0.118981 0.13586859 -0.80600011 -0.76183385 -0.35963199 0.53877091 0.0045637083
-0.1297276 0.1404743 -0.80600011 -0.75099653 -0.35422739 0.55724955 0.0064487355
-0.12819239 0.1404743 -0.80600011 -0.7548241 -0.354554 0.55184424 0.0061462759
-0.1235867 0.1389391 -0.80600011 -0.75761968 -0.35123432 0.55013359 0.0054130577
-0.1297276 0.14277714 -0.80600011 -0.75947267 -0.34474656 0.55168009 0.0071622799
-0.12819239 0.14277714 -0.80600011 -0.75983369 -0.34444255 0.55137289 0.0068878653
-0.1297276 0.14508 -0.80600011 -0.76363033 -0.34039083 0.54863733 0.006860767
-0.12742475 0.14584765 -0.80600011 -0.76760191 -0.3365252 0.5454706 0.0067050275
-0.067382857 0.035222854 -0.80400002 -0.079411648 -0.64245659 0.76219636 0.06830094
-0.064319998 0.035988569 -0.80400002 0.034744017 -0.64227432 0.76568693 0.06451983
-0.070074931 0.037966985 -0.80266666 -0.17149585 -0.62648207 0.76033509 0.063488096
-0.067215241 0.037426669 -0.80199999 -0.080808774 -0.63206178 0.77069306 0.063389309
-0.064160004 0.038190477 -0.80199999 0.02317249 -0.62975663 0.77644682 0.061755322
-0.062022861 0.037519999 -0.80400002 0.10987552 -0.63581258 0.76398295 0.059222661
-0.072742857 0.039817147 -0.80400002 -0.2795831 -0.61110592 0.74052876 0.058832794
-0.070584133 0.040005084 -0.80266666 -0.18614259 -0.61379755 0.767205 0.062802173
-0.061180957 0.039766669 -0.80300003 0.13480847 -0.62362134 0.77001506 0.057024732
-0.058194283 0.040582862 -0.80400002 0.21846204 -0.61290377 0.75935715 0.052281145
-0.075805724 0.043645721 -0.80400002 -0.37860867 -0.56390613 0.73393828 0.049000639
-0.073071107 0.043027945 -0.80199999 -0.27390787 -0.58718461 0.76170117 0.055308562
-0.07103429 0.042009529 -0.80199999 -0.21765485 -0.59686595 0.77225471 0.058813836
-0.060340948 0.042009529 -0.80199999 0.157364 -0.60778463 0.77835369 0.054455414
-0.05808524 0.042799532 -0.80250001 0.22467008 -0.59676224 0.7703234 0.049775537
-0.05534032 0.043099057 -0.80333328 0.30610582 -0.58158553 0.75369579 0.041132547
-0.076763824 0.045650154 -0.8033334 -0.40720132 -0.54726452 0.73122406 0.042626742
-0.054739691 0.045573965 -0.80199999 0.32341769 -0.56050104 0.76239067 0.037512194
-0.052035719 0.045913808 -0.80350006 0.39524379 -0.53998667 0.74309939 0.027397571
-0.078868583 0.049005717 -0.80400002 -0.48573622 -0.50967407 0.7101357 0.033760685
-0.077144757 0.048883811 -0.80199999 -0.42591441 -0.5277341 0.73491067 0.039866142
-0.052002862 0.048944764 -0.80299997 0.41163272 -0.52519822 0.74479884 0.023372466
-0.049771432 0.049771432 -0.80400002 0.45729768 -0.50924021 0.72907692 0.016058929
-0.079486191 0.051970955 -0.80250001 -0.50846571 -0.4985199 0.7020973 0.027986722
-0.051684447 0.051684447 -0.80199999 0.41529822 -0.5194428 0.74679756 0.022109402
-0.049219683 0.052280005 -0.80333328 0.468088 -0.50579423 0.72461432 0.013380118
-0.082306027 0.05529524 -0.80266666 -0.57066643 -0.47066396 0.67291558 0.019789007
-0.080200009 0.054994293 -0.80199999 -0.5323723 -0.48520151 0.69365638 0.024937315
-0.048119999 0.054994293 -0.80199999 0.48607686 -0.50323486 0.71448159 0.010587714
-0.046198092 0.055386662 -0.80400008 0.52038765 -0.48930776 0.69983906 0.0061124237
-0.084994286 0.058959998 -0.80400002 -0.63849777 -0.44116387 0.63063073 0.010511875
-0.082746044 0.057794921 -0.80199999 -0.58525366 -0.46501079 0.6642614 0.018629484
-0.04582857 0.057285711 -0.80199999 0.52069557 -0.49340516 0.6967262 0.0064612506
-0.042852864 0.058157615 -0.80350006 0.55561596 -0.47983032 0.67900938 0.0034942641
-0.088057138 0.062022861 -0.80400002 -0.68253767 -0.41952059 0.59845203 0.0051497328
-0.08560048 0.061142381 -0.80250001 -0.6448257 -0.43653029 0.62740821 0.010121189
-0.042009529 0.060340948 -0.80199999 0.56153113 -0.4793992 0.67443252 0.0022800521
-0.040038735 0.061460953 -0.80333328 0.5790633 -0.47159889 0.66504151 0.0018845965
-0.087947622 0.064239055 -0.80299997 -0.68589181 -0.41347262 0.59882623 0.004598252
-0.086310484 0.064160004 -0.80199999 -0.66004294 -0.42636508 0.61851126 0.0085066129
-0.039766669 0.063475236 -0.80299997 0.58160526 -0.47107461 0.66319227 0.0021317294
-0.03823714 0.065004766 -0.80299997 0.58995789 -0.46701151 0.65867281 0.0022180625
-0.091119997 0.068148568 -0.80400002 -0.72366613 -0.3904314 0.56909639 0.0019556957
-0.088930801 0.067015879 -0.80266666 -0.70458424 -0.40149242 0.58511961 0.0029252013
-0.086310484 0.06645143 -0.80199999 -0.67111641 -0.41940928 0.61130887 0.006093096
-0.03823714 0.067299046 -0.80299997 0.59451449 -0.46471846 0.65619296 0.0027230824
-0.091479376 0.070584133 -0.80266666 -0.72641999 -0.38456017 0.56958532 0.0018530777
-0.089365721 0.069506668 -0.80199999 -0.71023828 -0.39549246 0.58236361 0.0028432044
-0.037426669 0.070270479 -0.80199999 0.60214245 -0.46186706 0.65123212 0.0027894259
-0.035222854 0.070445716 -0.80400002 0.60951072 -0.45546243 0.64888418 0.0018251905
-0.032925721 0.071211427 -0.80400002 0.61556536 -0.44992766 0.64702731 0.0015863953
-0.091772385 0.073417142 -0.80299997 -0.73691726 -0.37722245 0.56094217 0.0019873618
-0.035156667 0.073370948 -0.80250001 0.61358547 -0.45319363 0.64662832 0.0021390866
-0.032387938 0.073702224 -0.80333328 0.61956292 -0.44838947 0.64427376 0.001783253
-0.02986286 0.074274287 -0.80400002 0.62563956 -0.44565618 0.64028561 0.0022678545
-0.094182856 0.076571435 -0.80400002 -0.75188971 -0.36658883 0.5479731 0.0016005128
-0.092420958 0.076380953 -0.80199999 -0.73889172 -0.37216672 0.5617215 0.001691419
-0.031316191 0.075617142 -0.80199999 0.622473 -0.44596073 0.64315343 0.0017739483
-0.02904238 0.076428093 -0.80250001 0.62759525 -0.44109988 0.64152557 0.0013595783
-0.093948573 0.079436198 -0.80199999 -0.74829584 -0.36655262 0.55289471 0.0012557011
-0.028296191 0.079536185 -0.80299997 0.63669032 -0.43300948 0.63806605 0.0015532451
-0.026289523 0.079889528 -0.80400008 0.64218992 -0.43071562 0.63409483 0.0021817116
-0.02826095 0.082491428 -0.80199999 0.64189696 -0.42967129 0.63509917 0.0023117948
-0.026034284 0.082697146 -0.80400002 0.64591885 -0.42627072 0.63331038 0.0018295678
-0.097675562 0.085943505 -0.80333328 -0.76972741 -0.35135862 0.53297913 0.0012423765
-0.025969526 0.084782861 -0.80199999 0.64626408 -0.42745903 0.63215613 0.0020579104
-0.023206985 0.085943505 -0.80333328 0.65067661 -0.42291543 0.6306842 0.0013701401
-0.098104134 0.088420317 -0.80266666 -0.77114403 -0.34711513 0.53371143 0.0010142364
-0.022941906 0.088712379 -0.80300003 0.65178144 -0.4262166 0.62731206 0.0015715919
-0.1010119 0.0918281 -0.80350006 -0.78154719 -0.34198192 0.52175891 0.0013331347
-0.098531432 0.090893343 -0.80199999 -0.77337766 -0.3467572 0.53070372 0.00093680434
-0.022150479 0.091657147 -0.80199999 0.65291744 -0.42893291 0.62427193 0.001785897
-0.020146672 0.092064135 -0.80333328 0.65444195 -0.42916268 0.62251508 0.0014372106
-0.10082285 0.094712391 -0.80199999 -0.78118634 -0.34070256 0.52313441 0.0011901094
-0.01911905 0.09482953 -0.80299997 0.6552527 -0.43042159 0.62079072 0.0011481296
-0.017611429 0.095714293 -0.80400002 0.65456456 -0.4307546 0.62128544 0.0016311209
-0.1033714 0.098011434 -0.80400002 -0.78950876 -0.33645442 0.51329756 0.0014642494
-0.1015867 0.097767621 -0.80199999 -0.78416538 -0.34097424 0.5184797 0.0012594281
-0.01909524 0.09700381 -0.80199999 0.6555686 -0.42982039 0.62087381 0.0015841261
-0.016834762 0.097950004 -0.80349994 0.65061033 -0.43173012 0.62475222 0.00099726359
-0.1040086 0.10094857 -0.80299997 -0.79005158 -0.33655143 0.512398 0.0012274301
-0.1015867 0.100059 -0.80199999 -0.78619426 -0.33974257 0.51621085 0.0011756469
-0.014013967 0.1011619 -0.80266666 0.6434077 -0.43481201 0.63005155 0.0022836742
-0.1063019 0.1040086 -0.80299997 -0.79075998 -0.33644778 0.51137215 0.0013537356
-0.1042197 0.10370921 -0.80266666 -0.79061764 -0.33548006 0.51222736 0.0011432364
-0.014013967 0.1042197 -0.80266666 0.6416474 -0.43475369 0.63188428 0.0025402829
-0.1070676 0.10706668 -0.80299997 -0.79229474 -0.33663985 0.50886416 0.0014043497
-0.01298476 0.10693335 -0.80199999 0.63716614 -0.43733037 0.63463491 0.0023610368
-0.010975236 0.10745524 -0.80400008 0.6336754 -0.43927166 0.63678563 0.0020147169
-0.1076972 0.1099886 -0.80199999 -0.79356581 -0.3374173 0.5063625 0.0016072443
-0.010699523 0.11005668 -0.80250001 0.63314074 -0.44103658 0.63609713 0.0023901926
-0.0084228572 0.1094971 -0.80400002 0.63020933 -0.44118932 0.63889605 0.0019400093
-0.1094971 0.11179429 -0.80400002 -0.79097468 -0.34044129 0.50838846 0.0021045015
-0.1076972 0.1130438 -0.80199999 -0.7912212 -0.34042326 0.50801677 0.0015661701
-0.0076485714 0.1116543 -0.80299997 0.63009125 -0.44220278 0.63831156 0.0023542589
-0.0045885714 0.1131838 -0.80299997 0.6271928 -0.44084546 0.64209384 0.0022025574
-0.1110286 0.1156229 -0.80400002 -0.78565466 -0.3454996 0.51320243 0.0028223852
-0.10931557 0.11542983 -0.80266666 -0.79046482 -0.34201881 0.50812256 0.0016050058
-0.0043282546 0.11584444 -0.80199999 0.62725163 -0.44024116 0.64245081 0.0029420778
-0.002297143 0.11485715 -0.80400002 0.62648988 -0.44162977 0.64224106 0.0027417722
-0.1110286 0.1171543 -0.80400002 -0.78456908 -0.35091951 0.51118177 0.0027635028
-0.1107524 0.1183905 -0.80199999 -0.78662729 -0.35029808 0.50843751 0.0022426278
-0.0022942862 0.1177724 -0.80299997 0.62470639 -0.44127688 0.64421791 0.003496218
-0.1140914 0.1217486 -0.80400002 -0.77174115 -0.35361743 0.52855492 0.0043833968
-0.11246666 0.12164633 -0.80333328 -0.77816802 -0.35471711 0.51829559 0.0031211462
-0.00076444447 0.12154537 -0.80266666 0.61818099 -0.44267246 0.64953315 0.0043280963
-0.1140914 0.12328 -0.80400002 -0.772425 -0.35360727 0.5275619 0.0040797722
-0.1138076 0.124501 -0.80199999 -0.7795338 -0.35421076 0.51658672 0.0029107425
0.0015314287 0.1240457 -0.80400002 0.60612828 -0.45192856 0.65449917 0.0042577153
0.0038285709 0.1248114 -0.80400002 0.59330672 -0.4586961 0.66150212 0.0041246084
-0.1138076 0.1267924 -0.80199999 -0.77879244 -0.35519648 0.5170278 0.0029999523
0.0015304763 0.1269505 -0.80299997 0.60048491 -0.4548187 0.65769124 0.0043864977
0.0043390477 0.12736385 -0.80400008 0.59036899 -0.4595342 0.66354555 0.0037458634
-0.1153352 0.1306114 -0.80199999 -0.77912247 -0.35653171 0.51560962 0.0029830849
0.0045895241 0.12924474 -0.80299997 0.58785248 -0.4598363 0.66556752 0.0041496344
0.0073961904 0.13031808 -0.80333328 0.58209133 -0.4634265 0.66813582 0.0039386894
0.007899683 0.13275811 -0.80266666 0.5788722 -0.4667179 0.66864139 0.0041474323
0.010719998 0.13323429 -0.80400002 0.57807171 -0.46667883 0.66936088 0.0037996424
-0.1202171 0.13706291 -0.80400002 -0.77353585 -0.35404328 0.52563828 0.0043560248
-0.1183905 0.13672189 -0.80199999 -0.77684969 -0.35222289 0.52196133 0.0038710665
0.0084019052 0.1351943 -0.80199999 0.57745862 -0.46618131 0.67023617 0.0042514461
0.010719998 0.13629715 -0.80400002 0.56835586 -0.47080079 0.67477262 0.0040225037
-0.12634289 0.14012571 -0.80400002 -0.76518875 -0.34792614 0.54169506 0.0061169188
-0.12328 0.14012571 -0.80400002 -0.77435756 -0.34394971 0.5311017 0.0055953292
-0.12159715 0.13918576 -0.80299997 -0.77686715 -0.34465003 0.52696669 0.0051219235
-0.1199181 0.1382495 -0.80199999 -0.77922088 -0.34531039 0.52304447 0.0047199572
0.010693332 0.1382495 -0.80199999 0.56768095 -0.47442898 0.67279679 0.0043203915
-0.12634289 0.14242285 -0.80400002 -0.77184927 -0.34127763 0.53644973 0.0060980506
-0.1246562 0.14224476 -0.80299997 -0.77472496 -0.33827782 0.53419966 0.0058584958
-0.12246411 0.1423232 -0.80199999 -0.77951485 -0.33427021 0.5297358 0.0058045294
-0.12634289 0.14472 -0.80400002 -0.77303833 -0.33280116 0.5400511 0.0065221624
-0.124501 0.14512381 -0.80199999 -0.77694017 -0.32951596 0.53645432 0.0060628369
-0.1229733 0.14512381 -0.80199999 -0.7794857 -0.32735628 0.53407854 0.0059712096
-0.124501 0.1481791 -0.80199999 -0.77489316 -0.32836688 0.54010719 0.0061957031
-0.1229733 0.1481791 -0.80199999 -0.7783547 -0.32696402 0.53596509 0.0061665075
-0.124501 0.1535257 -0.80199999 -0.77160281 -0.33632627 0.53992015 0.0070894724
-0.067047618 0.03885714 -0.80000001 -0.056480281 -0.61906189 0.78330857 0.058716182
-0.069333337 0.041904759 -0.80000001 -0.15165602 -0.59697974 0.78779167 0.057679247
-0.06679365 0.040888887 -0.80000007 -0.064375967 -0.60912615 0.79045624 0.060620911
-0.064000003 0.041142855 -0.80000001 0.029233795 -0.61452127 0.78835839 0.058421079
-0.061714292 0.041904759 -0.80000001 0.11105481 -0.60834259 0.78586644 0.055103343
-0.073142856 0.044952381 -0.80000001 -0.28963423 -0.56673676 0.77131152 0.050269924
-0.070095241 0.044190474 -0.80000001 -0.18907417 -0.58556634 0.78826588 0.056404568
-0.063238099 0.044190474 -0.80000001 0.073294379 -0.60473126 0.79304981 0.056940693
-0.060952388 0.044190474 -0.80000001 0.13562365 -0.60197836 0.78691053 0.053156439
-0.057904765 0.044952381 -0.80000001 0.239453 -0.57844812 0.77978194 0.044548359
-0.075428583 0.046476189 -0.80000001 -0.36819413 -0.5452528 0.75308198 0.041953437
-0.073142856 0.046476189 -0.80000001 -0.27508199 -0.56305963 0.77929062 0.051229551
-0.070857137 0.046476189 -0.80000001 -0.22359425 -0.57712007 0.78545409 0.055024348
-0.06019048 0.046476189 -0.80000001 0.16435489 -0.59093165 0.78980201 0.052496158
-0.057904765 0.046476189 -0.80000001 0.23954405 -0.57341284 0.78346437 0.045721892
-0.05561905 0.046476189 -0.80000001 0.29978019 -0.55758595 0.77409929 0.038972657
-0.075428583 0.048 -0.80000001 -0.37033045 -0.54000175 0.75581312 0.043243706
-0.07390476 0.048 -0.80000001 -0.3103959 -0.55456007 0.7720865 0.049189165
-0.057904765 0.048 -0.80000001 0.24752399 -0.56667006 0.78588617 0.044633746
-0.054857142 0.048761904 -0.80000001 0.32108253 -0.54886818 0.77178341 0.037649792
-0.076952383 0.051047619 -0.80000001 -0.42711163 -0.51924783 0.74024141 0.038891431
-0.054095238 0.051809527 -0.80000001 0.35569078 -0.53359503 0.76730722 0.031057874
-0.052571431 0.052571431 -0.80000001 0.39395082 -0.52321178 0.75567991 0.026451595
-0.078476191 0.054857142 -0.80000001 -0.47650778 -0.50241154 0.72147286 0.031956766
-0.051555555 0.054603174 -0.80000007 0.41913703 -0.51878518 0.74510813 0.021874575
-0.049523812 0.054857142 -0.80000001 0.46087489 -0.51256084 0.72448307 0.014672978
-0.081523813 0.058666669 -0.80000001 -0.56145525 -0.47647366 0.67656541 0.021750698
-0.079999998 0.057904765 -0.80000001 -0.52755177 -0.48358122 0.69845426 0.027760603
-0.049523812 0.057142861 -0.80000001 0.45731264 -0.51461279 0.72528529 0.016270112
-0.047492068 0.058158737 -0.80000007 0.49591374 -0.50673568 0.70518684 0.010494903
-0.044952381 0.058666669 -0.80000001 0.52482611 -0.49421555 0.69304299 0.006756749
-0.083047621 0.060952388 -0.80000001 -0.59572726 -0.45827043 0.65961903 0.016741727
-0.043936506 0.06069842 -0.80000007 0.54519027 -0.48925224 0.68073481 0.0051103407
-0.041904759 0.061714292 -0.80000001 0.56198329 -0.48210105 0.67212594 0.0032587692
-0.084571429 0.064000003 -0.80000001 -0.62951946 -0.44089481 0.63977885 0.012103358
-0.04342857 0.063238099 -0.80000001 0.55219191 -0.48682842 0.67681772 0.0044049122
-0.041396823 0.064253971 -0.80000007 0.56879079 -0.47969273 0.66811073 0.0035349829
-0.087619036 0.06780953 -0.80000001 -0.67932552 -0.41223529 0.60710692 0.0052687759
-0.085333332 0.067047618 -0.80000001 -0.651752 -0.4296113 0.62502271 0.0095589347
-0.041142855 0.067047618 -0.80000001 0.57799608 -0.47581309 0.662965 0.003394234
-0.088380948 0.070095241 -0.80000001 -0.69981587 -0.39871356 0.59269321 0.003518966
-0.040380951 0.070095241 -0.80000001 0.58904839 -0.46880943 0.65820956 0.0032388079
-0.03885714 0.070095241 -0.80000001 0.59436309 -0.46632734 0.65518796 0.0031345247
-0.089142852 0.073142856 -0.80000001 -0.71396786 -0.38734865 0.58327603 0.0021949585
-0.037841268 0.072888896 -0.80000007 0.60224086 -0.46110988 0.65167755 0.0028454808
-0.090666667 0.075428583 -0.80000001 -0.72495943 -0.38071391 0.57401276 0.0019890429
-0.035047613 0.075428583 -0.80000001 0.61479813 -0.45282286 0.64573592 0.002914961
-0.032253969 0.076444447 -0.80000007 0.62205124 -0.44733012 0.64261031 0.0023748435
-0.092190482 0.079238094 -0.80000001 -0.73762447 -0.3725116 0.56315655 0.0015806911
-0.03123809 0.078476191 -0.80000001 0.6270203 -0.44350743 0.64042705 0.0026267769
-0.02971429 0.079238094 -0.80000001 0.63032269 -0.44174543 0.63839984 0.0025774024
-0.094476193 0.082285717 -0.80000001 -0.74893141 -0.36441085 0.55344969 0.0012092048
-0.02971429 0.081523813 -0.80000001 0.63623279 -0.43580347 0.63661849 0.0032131537
-0.028190481 0.085333332 -0.80000001 0.6431722 -0.42970073 0.63378769 0.0026624044
-0.025904763 0.086095244 -0.80000001 0.64714217 -0.42852929 0.63053119 0.0027292757
-0.096761897 0.089142852 -0.80000001 -0.76647246 -0.35087833 0.53796327 0.0009916164
-0.025904763 0.08838094 -0.80000001 0.6492185 -0.42748228 0.62910587 0.0030093719
-0.09828572 0.092190482 -0.80000001 -0.77131611 -0.34779677 0.53301871 0.00082520169
-0.02514286 0.090666667 -0.80000001 0.64950389 -0.42969427 0.62730181 0.0019919733
-0.02361905 0.091428578 -0.80000001 0.64890265 -0.43036544 0.62746382 0.0015447795
-0.09828572 0.094476193 -0.80000001 -0.77579683 -0.34410053 0.52889895 0.0010806733
-0.020571429 0.094476193 -0.80000001 0.65246481 -0.4324882 0.62228912 0.0021935001
-0.099809527 0.097523808 -0.80000001 -0.78028142 -0.34276846 0.52313536 0.0010925491
-0.019809525 0.097523808 -0.80000001 0.65528226 -0.42940003 0.62146664 0.0023640196
-0.10057141 0.10057141 -0.80000001 -0.78391206 -0.3413257 0.51863152 0.0012084092
-0.016000001 0.10057141 -0.80000001 0.6540159 -0.42962232 0.62264585 0.0024527486
-0.1028571 0.104381 -0.80000001 -0.78896272 -0.33744618 0.51348597 0.0012547548
-0.1013333 0.1028571 -0.80000001 -0.78749597 -0.33907911 0.51466054 0.0012694387
-0.104381 0.1059048 -0.80000001 -0.78981113 -0.33743522 0.51218736 0.0012978344
-0.01447619 0.1066667 -0.80000001 0.64457631 -0.43459198 0.62900817 0.0022768646
-0.1059048 0.1097143 -0.80000001 -0.79161602 -0.33879018 0.50849319 0.0014551476
-0.01295238 0.1097143 -0.80000001 0.63758469 -0.43885964 0.63315713 0.0025821461
-0.1059048 0.112 -0.80000001 -0.79190558 -0.33892417 0.50795275 0.0015944394
-0.0099047627 0.112 -0.80000001 0.63311779 -0.43856433 0.63782686 0.002898684
-0.0076190475 0.1127619 -0.80000001 0.63298547 -0.43954247 0.6372847 0.0033518088
-0.1074286 0.1150476 -0.80000001 -0.79037881 -0.34199265 0.5082739 0.0016697437
-0.0068571428 0.1150476 -0.80000001 0.63097966 -0.43704897 0.64097804 0.0031423699
-0.0053333328 0.1165714 -0.80000001 0.62883025 -0.43676251 0.6432814 0.0034549488
-0.1097143 0.1188571 -0.80000001 -0.78685558 -0.34764922 0.50990027 0.0018456179
-0.0045714285 0.1180952 -0.80000001 0.62678754 -0.43811882 0.64435178 0.0041747387
-0.002285714 0.119619 -0.80000001 0.6230756 -0.43987834 0.64674872 0.0040312181
-0.1104762 0.12190481 -0.80000001 -0.78315216 -0.35287595 0.51200712 0.0022515832
-0.002285714 0.1211429 -0.80000001 0.62268668 -0.43925121 0.64754903 0.0041757878
-0.112 0.1241905 -0.80000001 -0.7824353 -0.35456419 0.51193684 0.0024479765
-0.00076190481 0.1241905 -0.80000001 0.61469454 -0.44563264 0.6508165 0.0043089674
-0.1135238 0.1287619 -0.80000001 -0.78407675 -0.35524106 0.50894743 0.0030435536
0.002285714 0.1287619 -0.80000001 0.59824806 -0.45749426 0.65787405 0.0039294879
-0.1150476 0.1318095 -0.80000001 -0.78181869 -0.35471344 0.51277471 0.0032184757
0.002285714 0.1302857 -0.80000001 0.59385961 -0.45938188 0.66052943 0.0040095071
0.0045714285 0.13104761 -0.80000001 0.58864564 -0.46262747 0.66292697 0.004093044
-0.1165714 0.1333333 -0.80000001 -0.78004378 -0.35509014 0.51521128 0.0031842187
0.003809524 0.1333333 -0.80000001 0.58335805 -0.46409863 0.66656256 0.0041457722
0.0068571428 0.13409519 -0.80000001 0.57884377 -0.46585286 0.66926897 0.004066573
-0.1180952 0.13790479 -0.80000001 -0.78189176 -0.34492993 0.51929623 0.0044480395
0.0083809523 0.1363809 -0.80000001 0.57876992 -0.46724638 0.66836077 0.0046635419
-0.1211429 0.14095239 -0.80000001 -0.78226185 -0.33649966 0.52424639 0.005330252
-0.119619 0.1401905 -0.80000001 -0.78366202 -0.33681342 0.52194875 0.0051203789
-0.119619 0.1424762 -0.80000001 -0.78411067 -0.33252928 0.52401799 0.0053889793
-0.1211429 0.14476189 -0.80000001 -0.78327155 -0.32752267 0.52840745 0.0058566867
-0.1211429 0.14780951 -0.80000001 -0.78341234 -0.32614294 0.52905196 0.0061627766
-0.1241905 0.15085709 -0.80000001 -0.7797448 -0.33005536 0.53203517 0.0066308491
-0.1226667 0.15085709 -0.80000001 -0.78066409 -0.32980788 0.53083926 0.0064435489
-0.067639999 0.0418 -0.79799998 -0.093041487 -0.60514194 0.79066211 0.055958632
-0.066880003 0.04408 -0.79799998 -0.083247095 -0.59583408 0.79878134 0.056167938
-0.064599998 0.04408 -0.79799998 0.021121524 -0.60311407 0.79737526 0.054868147
-0.072200008 0.047880001 -0.79799998 -0.25250933 -0.56273395 0.78712744 0.049395096
-0.069637783 0.047353338 -0.79766673 -0.18290551 -0.57373691 0.79835552 0.053870764
-0.066837624 0.046330955 -0.79750001 -0.073890187 -0.58543181 0.80734742 0.056429967
-0.063819766 0.047104999 -0.79775 0.032172829 -0.59009862 0.8066898 0.057073113
-0.061053336 0.047373336 -0.79800004 0.14624864 -0.57979798 0.80152702 0.051238932
-0.075240009 0.050159998 -0.79799998 -0.36564708 -0.53563201 0.76118368 0.041085776
-0.072891667 0.05011262 -0.79725009 -0.28865784 -0.55097717 0.78300756 0.047242232
-0.070591427 0.049338099 -0.79700011 -0.2145499 -0.56466466 0.79694551 0.052724078
-0.063000947 0.049338099 -0.79700011 0.0731645 -0.57193482 0.81702971 0.054110166
-0.060761429 0.050128572 -0.79750001 0.15870331 -0.56977725 0.80632943 0.05122013
-0.05852 0.050159998 -0.79799998 0.21296582 -0.56303543 0.79852152 0.048355859
-0.056493334 0.050413333 -0.79800004 0.28962129 -0.55186772 0.78202403 0.039605211
-0.075928815 0.05314976 -0.79725009 -0.39239976 -0.52797896 0.75316703 0.041024685
-0.073627621 0.052374288 -0.79700011 -0.31542021 -0.54916275 0.77390593 0.048764348
-0.060761429 0.052407146 -0.79750001 0.1488626 -0.57000166 0.8080458 0.052565392
-0.058977149 0.053408258 -0.79733342 0.20494197 -0.5678336 0.79722261 0.049229302
-0.056222145 0.053183094 -0.79775 0.30141616 -0.54657972 0.78128028 0.038448848
-0.053959999 0.053959999 -0.79799998 0.35700235 -0.53393966 0.76645792 0.03161744
-0.078181908 0.056928579 -0.79700011 -0.47091562 -0.50716507 0.72181863 0.03447561
-0.076663807 0.055410478 -0.79700011 -0.42053279 -0.52500618 0.73994637 0.0394211
-0.055916514 0.055916514 -0.79700011 0.30977008 -0.54874611 0.77647936 0.037815426
-0.053430796 0.055962861 -0.79766673 0.37079912 -0.52990013 0.76270163 0.030189931
-0.052902222 0.057964452 -0.79733342 0.3861258 -0.53118873 0.75415212 0.026843719
-0.050286856 0.058793902 -0.79760003 0.43834418 -0.5172081 0.73508513 0.019462202
-0.081320003 0.060800001 -0.79799998 -0.55015343 -0.47670797 0.68562424 0.023880558
-0.079750001 0.060761429 -0.79750001 -0.52013147 -0.48892874 0.7002942 0.028786827
-0.049338099 0.061482862 -0.79700011 0.46276039 -0.51658767 0.72040957 0.015016075
-0.047119997 0.060800001 -0.79799998 0.5001359 -0.50653422 0.702344 0.010609864
-0.044840001 0.061560001 -0.79799998 0.53135669 -0.49528989 0.68727577 0.0070346831
-0.082054526 0.063819759 -0.79775 -0.57803541 -0.46486232 0.67065489 0.02009188
-0.079700001 0.063000947 -0.79700011 -0.52566022 -0.48319829 0.70014346 0.028297471
-0.049338099 0.063000947 -0.79700011 0.4635686 -0.51320267 0.72230685 0.015497674
-0.047090001 0.063799992 -0.79750007 0.50625104 -0.50501609 0.69904852 0.0097898273
-0.044333335 0.064093336 -0.79800004 0.54554135 -0.48998606 0.6799252 0.0053376788
