# .PCD v0.7 - Point Cloud Data file format
VERSION 0.7
FIELDS x y z normal_x normal_y normal_z curvature
SIZE 4 4 4 4 4 4 4
TYPE F F F F F F F
COUNT 1 1 1 1 1 1 1
WIDTH 906
HEIGHT 1
VIEWPOINT 0 0 0 1 0 0 0
POINTS 906
DATA ascii
-0.034063809 0.24569429 -0.76099998 0 0 0 0.013286543
-0.032699998 0.24634001 -0.76300001 0 0 0 0.013286543
-0.03124667 0.24634001 -0.76300001 0 0 0 0.013286543
-0.02987143 0.2469857 -0.76499999 0 0 0 0.0061034537
-0.02841429 0.2469857 -0.76499999 0 0 0 0.0061034537
-0.02702762 0.2476314 -0.76700002 0 0 0 0.0061034537
-0.025566669 0.2476314 -0.76700002 0 0 0 0.0061034537
-0.024105711 0.2476314 -0.76700002 0 0 0 0.0091143623
-0.02264476 0.2476314 -0.76700002 0 0 0 0.0070711006
-0.021266671 0.24860001 -0.76999998 0 0 0 0.0070711006
-0.019851429 0.2492457 -0.77200001 0 0 0 0.0070711006
-0.018380949 0.2492457 -0.77200001 0 0 0 0.0070711006
-0.098057151 0.2310857 -0.72000003 0 0 0 0.0071487781
-0.096954294 0.2317276 -0.72200012 0 0 0 0.0071487781
-0.095579058 0.2317276 -0.72200012 0 0 0 0.0071487781
-0.094334297 0.2320486 -0.72299999 0 0 0 0.0071487781
-0.092957146 0.2320486 -0.72299999 0 0 0 0.0071487781
-0.091833338 0.2326905 -0.72500002 0 0 0 0.0071487781
-0.090452388 0.2326905 -0.72500002 0 0 0 0.0071487781
-0.08907143 0.2326905 -0.72500002 0 0 0 0.0071487781
-0.087811433 0.23301139 -0.72600001 0 0 0 0.0071487781
-0.086428568 0.23301139 -0.72600001 0 0 0 0.0071487781
-0.085045718 0.23301139 -0.72600001 0 0 0 0.0075533539
-0.083893336 0.23365331 -0.72799999 0 0 0 0.0075533539
-0.082620002 0.23397429 -0.72899997 0 0 0 0.0075533539
-0.081454277 0.23461621 -0.73100001 0 0 0 0.0075533539
-0.080061913 0.23461621 -0.73100001 0 0 0 0.0075533539
-0.078669533 0.23461621 -0.73100001 0 0 0 0.0081023984
-0.077382863 0.23493721 -0.73200011 0 0 0 0.0081023984
-0.075988583 0.23493721 -0.73200011 0 0 0 0.0081023984
-0.0747981 0.235579 -0.73400003 0 0 0 0.0081023984
-0.073399998 0.235579 -0.73400003 0 0 0 0.0081023984
-0.072001912 0.235579 -0.73400003 0 0 0 0.0081023984
-0.070796199 0.236221 -0.73600012 0 0 0 0.0081023984
-0.069488578 0.2365419 -0.73699999 0 0 0 0.0081023984
-0.068269521 0.23718379 -0.73900002 0 0 0 0.0081023984
-0.066861913 0.23718379 -0.73900002 0 0 0 0.0081023984
-0.065454289 0.23718379 -0.73900002 0 0 0 0.0081023984
-0.064133339 0.2375048 -0.74000001 0 0 0 0.0084066791
-0.062723808 0.2375048 -0.74000001 0 0 0 0.0084066791
-0.061562859 0.2384676 -0.74299997 0 0 0 0.0084066791
-0.060147621 0.2384676 -0.74299997 0 0 0 0.0084066791
-0.058732379 0.2384676 -0.74299997 0 0 0 0.0084066791
-0.057471432 0.2391095 -0.74500012 0 0 0 0.0091565559
-0.056052379 0.2391095 -0.74500012 0 0 0 0.0087274611
-0.054779999 0.2397514 -0.74699998 0 0 0 0.0086941486
-0.053428572 0.2400724 -0.74800003 0 0 0 0.0086941486
-0.052142859 0.2407143 -0.75000012 0 0 0 0.0086941486
-0.050714292 0.2407143 -0.75000012 0 0 0 0.0086941486
-0.049417142 0.24135619 -0.75199997 0 0 0 0.0092798471
-0.048048571 0.24167711 -0.75300002 0 0 0 0.0087274611
-0.046614289 0.24167711 -0.75300002 0 0 0 0.0087274611
-0.04518 0.24167711 -0.75300002 0 0 0 0.0091671497
-0.043861911 0.24231911 -0.75500011 0 0 0 0.0091671497
-0.042423811 0.24231911 -0.75500011 0 0 0 0.0091671497
-0.04104 0.24264 -0.75599998 0 0 0 0.0092798471
-0.039704759 0.2432819 -0.75800002 0 0 0 0.0091565559
-0.038260952 0.2432819 -0.75800002 0 0 0 0.008930047
-0.036914289 0.2439238 -0.76000011 0 0 0 0.008930047
-0.03551333 0.2442448 -0.76099998 0 0 0 0.0082279583
-0.034063809 0.2442448 -0.76099998 0 0 0 0.011637611
-0.032699998 0.2448867 -0.76300001 0 0 0 0.011637611
-0.03132857 0.24552859 -0.76499999 0 0 0 0.011637611
-0.02987143 0.24552859 -0.76499999 0 0 0 0.008930047
-0.02841429 0.24552859 -0.76499999 0 0 0 0.008930047
-0.02702762 0.24617051 -0.76700002 0 0 0 0.008930047
-0.025566669 0.24617051 -0.76700002 0 0 0 0.008930047
-0.024137139 0.2464914 -0.76800001 0 0 0 0.0080334591
-0.02267429 0.2464914 -0.76800001 0 0 0 0.0080334591
-0.021266671 0.2471333 -0.76999998 0 0 0 0.011637611
-0.019851429 0.2477752 -0.77200001 0 0 0 0.011637611
-0.018380949 0.2477752 -0.77200001 0 0 0 0.011637611
-0.099428572 0.2297143 -0.72000003 0 0 0 0.011637611
-0.098329529 0.2303524 -0.72200012 0 0 0 0.0077708703
-0.097088583 0.23067141 -0.72299999 0 0 0 0.0077708703
-0.09571144 0.23067141 -0.72299999 0 0 0 0.0077708703
-0.094595239 0.2313095 -0.72500002 0 0 0 0.0080334591
-0.093214288 0.2313095 -0.72500002 0 0 0 0.0064979899
-0.091833338 0.2313095 -0.72500002 0 0 0 0.011637611
-0.090577148 0.2316286 -0.72600001 0 0 0 0.011637611
-0.089194283 0.2316286 -0.72600001 0 0 0 0.011637611
-0.087811433 0.2316286 -0.72600001 0 0 0 0.011637611
-0.086428568 0.2316286 -0.72600001 0 0 0 0.0077708703
-0.085280009 0.23226669 -0.72799999 0 0 0 0.0077708703
-0.083893336 0.23226669 -0.72799999 0 0 0 0.0069756238
-0.082620002 0.2325857 -0.72899997 0 0 0 0.0069756238
-0.081454277 0.2332238 -0.73100001 0 0 0 0.0083763981
-0.080171444 0.2335429 -0.73200011 0 0 0 0.0083763981
-0.078777142 0.2335429 -0.73200011 0 0 0 0.011637611
-0.077382863 0.2335429 -0.73200011 0 0 0 0.011637611
-0.075988583 0.2335429 -0.73200011 0 0 0 0.011637611
-0.0747981 0.234181 -0.73400003 0 0 0 0.011637611
-0.073399998 0.234181 -0.73400003 0 0 0 0.011637611
-0.0721981 0.2348191 -0.73600012 0 0 0 0.0070288428
-0.070892394 0.2351381 -0.73699999 0 0 0 0.0070288428
-0.069677137 0.2357762 -0.73900002 0 0 0 0.0070513668
-0.068269521 0.2357762 -0.73900002 0 0 0 0.0083763981
-0.066952392 0.2360952 -0.74000001 0 0 0 0.0083763981
-0.065454289 0.2357762 -0.73900002 0 0 0 0.011555746
-0.064133339 0.2360952 -0.74000001 0 0 0 0.011555746
-0.062723808 0.2360952 -0.74000001 0 0 0 0.011555746
-0.061562859 0.2370524 -0.74299997 0 0 0 0.011555746
-0.060147621 0.2370524 -0.74299997 0 0 0 0.011555746
-0.058890481 0.23769049 -0.74500012 0 0 0 0.0070288428
-0.057471432 0.23769049 -0.74500012 0 0 0 0.0070513668
-0.056052379 0.23769049 -0.74500012 0 0 0 0.0083763981
-0.054779999 0.23832861 -0.74699998 0 0 0 0.0083763981
-0.053428572 0.2386476 -0.74800003 0 0 0 0.0083763981
-0.052142859 0.23928569 -0.75000012 0 0 0 0.026950076
-0.050849531 0.2399238 -0.75199997 0 0 0 0.026950076
-0.049417142 0.2399238 -0.75199997 0 0 0 0.026950076
-0.04798476 0.2399238 -0.75199997 0 0 0 0.011555746
-0.046614289 0.2402429 -0.75300002 0 0 0 0.011555746
-0.04518 0.2402429 -0.75300002 0 0 0 0.011555746
-0.043861911 0.240881 -0.75500011 0 0 0 0.011555746
-0.042479999 0.2412 -0.75599998 0 0 0 0.011555746
-0.04104 0.2412 -0.75599998 0 0 0 0.0070288428
-0.039704759 0.2418381 -0.75800002 0 0 0 0.0070513668
-0.038260952 0.2418381 -0.75800002 0 0 0 0.0083763981
-0.036914289 0.2424762 -0.76000011 0 0 0 0.0083763981
-0.03551333 0.2427952 -0.76099998 0 0 0 0.013640126
-0.034063809 0.2427952 -0.76099998 0 0 0 0.026950076
-0.032699998 0.2434333 -0.76300001 0 0 0 0.034669161
-0.03132857 0.2440715 -0.76499999 0 0 0 0.034669161
-0.02987143 0.2440715 -0.76499999 0 0 0 0.011555746
-0.02841429 0.2440715 -0.76499999 0 0 0 0.0070513668
-0.02702762 0.24470951 -0.76700002 0 0 0 0.0083763981
-0.025599999 0.2450286 -0.76800001 0 0 0 0.013640126
-0.024137139 0.2450286 -0.76800001 0 0 0 0.013640126
-0.02267429 0.2450286 -0.76800001 0 0 0 0.03485243
-0.02121143 0.2450286 -0.76800001 0 0 0 0.03485243
-0.0198 0.2456667 -0.76999998 0 0 0 0.03485243
-0.018333331 0.2456667 -0.76999998 0 0 0 0.034669161
-0.099704772 0.2289772 -0.72200012 0 0 0 0.013640126
-0.098329529 0.2289772 -0.72200012 0 0 0 0.013640126
-0.097088583 0.2292943 -0.72299999 0 0 0 0.03794419
-0.09571144 0.2292943 -0.72299999 0 0 0 0.03794419
-0.094595239 0.2299286 -0.72500002 0 0 0 0.03794419
-0.093214288 0.2299286 -0.72500002 0 0 0 0.03485243
-0.091833338 0.2299286 -0.72500002 0 0 0 0.03485243
-0.090577148 0.23024569 -0.72600001 0 0 0 0.03485243
-0.089194283 0.23024569 -0.72600001 0 0 0 0.03794419
-0.087811433 0.23024569 -0.72600001 0 0 0 0.03794419
-0.086428568 0.23024569 -0.72600001 0 0 0 0.03794419
-0.085045718 0.23024569 -0.72600001 0 0 0 0.03794419
-0.083893336 0.23088001 -0.72799999 0 0 0 0.038700335
-0.082506672 0.23088001 -0.72799999 0 0 0 0.05049162
-0.081454277 0.2318314 -0.73100001 0 0 0 0.05049162
-0.080171444 0.2321486 -0.73200011 0 0 0 0.041527759
-0.078777142 0.2321486 -0.73200011 0 0 0 0.041527759
-0.077382863 0.2321486 -0.73200011 0 0 0 0.041527759
-0.076196194 0.2327829 -0.73400003 0 0 0 0.041527759
-0.0747981 0.2327829 -0.73400003 0 0 0 0.05273236
-0.073600002 0.2334172 -0.73600012 0 0 0 0.05049162
-0.072296187 0.23373429 -0.73699999 0 0 0 0.05049162
-0.070892394 0.23373429 -0.73699999 0 0 0 0.045052014
-0.069677137 0.23436861 -0.73900002 0 0 0 0.045052014
-0.068269521 0.23436861 -0.73900002 0 0 0 0.045052014
-0.066952392 0.2346857 -0.74000001 0 0 0 0.05273236
-0.065542847 0.2346857 -0.74000001 0 0 0 0.05273236
-0.064133339 0.2346857 -0.74000001 0 0 0 0.062466953
-0.062893331 0.23532 -0.74199998 0 0 0 0.065386564
-0.061562859 0.2356371 -0.74299997 0 0 0 0.045052014
-0.060309529 0.2362714 -0.74500012 0 0 0 0.045052014
-0.058890481 0.2362714 -0.74500012 0 0 0 0.055380255
-0.057625718 0.23690569 -0.74699998 0 0 0 0.059638299
-0.056202859 0.23690569 -0.74699998 0 0 0 0.059638299
-0.054853339 0.2372229 -0.74800003 0 0 0 0.065386564
-0.053571429 0.2378571 -0.75000012 0 0 0 0.065386564
-0.052142859 0.2378571 -0.75000012 0 0 0 0.045052014
-0.050849531 0.2384914 -0.75199997 0 0 0 0.055380255
-0.04948286 0.2388086 -0.75300002 0 0 0 0.059638299
-0.048048571 0.2388086 -0.75300002 0 0 0 0.059638299
-0.046738099 0.2394429 -0.75500011 0 0 0 0.059638299
-0.045299999 0.2394429 -0.75500011 0 0 0 0.065386564
-0.043919999 0.23976 -0.75599998 0 0 0 0.065386564
-0.042479999 0.23976 -0.75599998 0 0 0 0.066338621
-0.04104 0.23976 -0.75599998 0 0 0 0.066338621
-0.039704759 0.24039429 -0.75800002 0 0 0 0.02022747
-0.038260952 0.24039429 -0.75800002 0 0 0 0.02022747
-0.036914289 0.24102861 -0.76000011 0 0 0 0.02022747
-0.03551333 0.2413457 -0.76099998 0 0 0 0.066338621
-0.034153331 0.24198 -0.76300001 0 0 0 0.066338621
-0.032699998 0.24198 -0.76300001 0 0 0 0.021382725
-0.03132857 0.2426143 -0.76499999 0 0 0 0.021382725
-0.02987143 0.2426143 -0.76499999 0 0 0 0.014976252
-0.028488571 0.2432486 -0.76700002 0 0 0 0.014976252
-0.02702762 0.2432486 -0.76700002 0 0 0 0.066338621
-0.025599999 0.24356569 -0.76800001 0 0 0 0.066338621
-0.024137139 0.24356569 -0.76800001 0 0 0 0.021382725
-0.02267429 0.24356569 -0.76800001 0 0 0 0.021382725
-0.021266671 0.24420001 -0.76999998 0 0 0 0.014976252
-0.01974857 0.24356569 -0.76800001 0 0 0 0.014976252
-0.01828571 0.24356569 -0.76800001 0 0 0 0.066338621
-0.099704772 0.2276019 -0.72200012 0 0 0 0.066338621
-0.098465718 0.22791719 -0.72299999 0 0 0 0.021382725
-0.097088583 0.22791719 -0.72299999 0 0 0 0.021382725
-0.09571144 0.22791719 -0.72299999 0 0 0 0.014976252
-0.094334297 0.22791719 -0.72299999 0 0 0 0.014976252
-0.093214288 0.2285476 -0.72500002 0 0 0 0.014976252
-0.091833338 0.2285476 -0.72500002 0 0 0 0.066338621
-0.090452388 0.2285476 -0.72500002 0 0 0 0.066338621
-0.08907143 0.2285476 -0.72500002 0 0 0 0.021382725
-0.08769048 0.2285476 -0.72500002 0 0 0 0.015288024
-0.086428568 0.2288629 -0.72600001 0 0 0 0.015288024
-0.085045718 0.2288629 -0.72600001 0 0 0 0.016749818
-0.083893336 0.22949331 -0.72799999 0 0 0 0.016749818
-0.082506672 0.22949331 -0.72799999 0 0 0 0.013421433
-0.081565723 0.2307543 -0.73200011 0 0 0 0.066338621
-0.080171444 0.2307543 -0.73200011 0 0 0 0.066338621
-0.078777142 0.2307543 -0.73200011 0 0 0 0.021382725
-0.077594288 0.2313848 -0.73400003 0 0 0 0.017052846
-0.076196194 0.2313848 -0.73400003 0 0 0 0.017052846
-0.0747981 0.2313848 -0.73400003 0 0 0 0.016749818
-0.073600002 0.2320153 -0.73600012 0 0 0 0.016749818
-0.072296187 0.2323305 -0.73699999 0 0 0 0.013421433
-0.07108476 0.232961 -0.73900002 0 0 0 0.013421433
-0.069677137 0.232961 -0.73900002 0 0 0 0.013421433
-0.068361901 0.2332762 -0.74000001 0 0 0 0.066338621
-0.067133337 0.2339067 -0.74199998 0 0 0 0.017052846
-0.065720007 0.2339067 -0.74199998 0 0 0 0.017052846
-0.064306669 0.2339067 -0.74199998 0 0 0 0.016749818
-0.062893331 0.2339067 -0.74199998 0 0 0 0.016749818
-0.061562859 0.23422191 -0.74299997 0 0 0 0.014926031
-0.060309529 0.2348524 -0.74500012 0 0 0 0.013421433
-0.059048571 0.2354829 -0.74699998 0 0 0 0.013421433
-0.057625718 0.2354829 -0.74699998 0 0 0 0.013421433
-0.056278098 0.23579811 -0.74800003 0 0 0 0.017052846
-0.054853339 0.23579811 -0.74800003 0 0 0 0.016481195
-0.053571429 0.2364286 -0.75000012 0 0 0 0.016481195
-0.052281909 0.2370591 -0.75199997 0 0 0 0.014926031
-0.050849531 0.2370591 -0.75199997 0 0 0 0.014926031
-0.04948286 0.23737431 -0.75300002 0 0 0 0.013421433
-0.048176192 0.2380048 -0.75500011 0 0 0 0.013421433
-0.046738099 0.2380048 -0.75500011 0 0 0 0.013421433
-0.045299999 0.2380048 -0.75500011 0 0 0 0.014688815
-0.043919999 0.23831999 -0.75599998 0 0 0 0.014841568
-0.042479999 0.23831999 -0.75599998 0 0 0 0.014841568
-0.04104 0.23831999 -0.75599998 0 0 0 0.013759579
-0.039704759 0.23895051 -0.75800002 0 0 0 0.012956802
-0.038260952 0.23895051 -0.75800002 0 0 0 0.012956802
-0.036914289 0.239581 -0.76000011 0 0 0 0.012956802
-0.03551333 0.23989619 -0.76099998 0 0 0 0.014688815
-0.034063809 0.23989619 -0.76099998 0 0 0 0.014841568
-0.032699998 0.24052671 -0.76300001 0 0 0 0.014841568
-0.03132857 0.2411571 -0.76499999 0 0 0 0.014841568
-0.02987143 0.2411571 -0.76499999 0 0 0 0.013759579
-0.02841429 0.2411571 -0.76499999 0 0 0 0.012956802
-0.02702762 0.2417876 -0.76700002 0 0 0 0.012956802
-0.025566669 0.2417876 -0.76700002 0 0 0 0.014602206
-0.024137139 0.24210291 -0.76800001 0 0 0 0.014602206
-0.02267429 0.24210291 -0.76800001 0 0 0 0.014746116
-0.02121143 0.24210291 -0.76800001 0 0 0 0.014505219
-0.01974857 0.24210291 -0.76800001 0 0 0 0.014505219
-0.01828571 0.24210291 -0.76800001 0 0 0 0.014505219
-0.099704772 0.2262267 -0.72200012 0 0 0 0.014505219
-0.098465718 0.22654 -0.72299999 0 0 0 0.012533745
-0.097088583 0.22654 -0.72299999 0 0 0 0.011480757
-0.09571144 0.22654 -0.72299999 0 0 0 0.014602206
-0.094334297 0.22654 -0.72299999 0 0 0 0.014602206
-0.093214288 0.2271667 -0.72500002 0 0 0 0.014602206
-0.091833338 0.2271667 -0.72500002 0 0 0 0.014746116
-0.090577148 0.22747999 -0.72600001 0 0 0 0.014505219
-0.089194283 0.22747999 -0.72600001 0 0 0 0.014505219
-0.087811433 0.22747999 -0.72600001 0 0 0 0.014505219
-0.086428568 0.22747999 -0.72600001 0 0 0 0.014505219
-0.085280009 0.22810671 -0.72799999 0 0 0 0.011480757
-0.083893336 0.22810671 -0.72799999 0 0 0 0.011480757
-0.082620002 0.22842 -0.72899997 0 0 0 0.014602206
-0.081565723 0.22936 -0.73200011 0 0 0 0.014602206
-0.080171444 0.22936 -0.73200011 0 0 0 0.014746116
-0.078992382 0.2299867 -0.73400003 0 0 0 0.014746116
-0.077594288 0.2299867 -0.73400003 0 0 0 0.014746116
-0.076196194 0.2299867 -0.73400003 0 0 0 0.014505219
-0.07500191 0.23061331 -0.73600012 0 0 0 0.014505219
-0.073700003 0.23092671 -0.73699999 0 0 0 0.011831412
-0.072296187 0.23092671 -0.73699999 0 0 0 0.011831412
-0.07108476 0.2315533 -0.73900002 0 0 0 0.011831412
-0.069771431 0.2318667 -0.74000001 0 0 0 0.014602206
-0.068361901 0.2318667 -0.74000001 0 0 0 0.014746116
-0.067133337 0.2324933 -0.74199998 0 0 0 0.014746116
-0.065720007 0.2324933 -0.74199998 0 0 0 0.014746116
-0.064393342 0.2328067 -0.74299997 0 0 0 0.014746116
-0.062978096 0.2328067 -0.74299997 0 0 0 0.011831412
-0.061728571 0.2334334 -0.74500012 0 0 0 0.011831412
-0.060309529 0.2334334 -0.74500012 0 0 0 0.011831412
-0.059048571 0.23406 -0.74699998 0 0 0 0.011831412
-0.057702862 0.2343733 -0.74800003 0 0 0 0.014531857
-0.056278098 0.2343733 -0.74800003 0 0 0 0.014531857
-0.055 0.235 -0.75000012 0 0 0 0.014531857
-0.053571429 0.235 -0.75000012 0 0 0 0.014531857
-0.052281909 0.2356267 -0.75199997 0 0 0 0.014531857
-0.050849531 0.2356267 -0.75199997 0 0 0 0.011831412
-0.04948286 0.23593999 -0.75300002 0 0 0 0.01420074
-0.048176192 0.23656669 -0.75500011 0 0 0 0.01420074
-0.046738099 0.23656669 -0.75500011 0 0 0 0.014363446
-0.045359999 0.23688 -0.75599998 0 0 0 0.014363446
-0.043919999 0.23688 -0.75599998 0 0 0 0.014363446
-0.042479999 0.23688 -0.75599998 0 0 0 0.014363446
-0.04104 0.23688 -0.75599998 0 0 0 0.01420074
-0.039704759 0.2375067 -0.75800002 0 0 0 0.01420074
-0.038260952 0.2375067 -0.75800002 0 0 0 0.014363446
-0.036914289 0.2381334 -0.76000011 0 0 0 0.014363446
-0.035466671 0.2381334 -0.76000011 0 0 0 0.014363446
-0.034063809 0.2384467 -0.76099998 0 0 0 0.014363446
-0.032699998 0.23907331 -0.76300001 0 0 0 0.01707069
-0.03124667 0.23907331 -0.76300001 0 0 0 0.01707069
-0.02979333 0.23907331 -0.76300001 0 0 0 0.01707069
-0.02841429 0.2397 -0.76499999 0 0 0 0.01707069
-0.026957139 0.2397 -0.76499999 0 0 0 0.01420074
-0.025566669 0.2403267 -0.76700002 0 0 0 0.017698007
-0.024105711 0.2403267 -0.76700002 0 0 0 0.017698007
-0.02264476 0.2403267 -0.76700002 0 0 0 0.017698007
-0.021183809 0.2403267 -0.76700002 0 0 0 0.017964881
-0.01974857 0.24064 -0.76800001 0 0 0 0.017964881
-0.01828571 0.24064 -0.76800001 0 0 0 0.01707069
-0.01691048 0.24189331 -0.77200001 0 0 0 0.01707069
-0.01544 0.24189331 -0.77200001 0 0 0 0.01707069
-0.01396952 0.24189331 -0.77200001 0 0 0 0.01707069
-0.099704772 0.2248514 -0.72200012 0 0 0 0.017698007
-0.098465718 0.22516289 -0.72299999 0 0 0 0.017698007
-0.097088583 0.22516289 -0.72299999 0 0 0 0.017698007
-0.09571144 0.22516289 -0.72299999 0 0 0 0.017964881
-0.094334297 0.22516289 -0.72299999 0 0 0 0.017964881
-0.093214288 0.2257857 -0.72500002 0 0 0 0.017368995
-0.091833338 0.2257857 -0.72500002 0 0 0 0.01707069
-0.090577148 0.2260972 -0.72600001 0 0 0 0.01707069
-0.089194283 0.2260972 -0.72600001 0 0 0 0.01707069
-0.087811433 0.2260972 -0.72600001 0 0 0 0.01707069
-0.086428568 0.2260972 -0.72600001 0 0 0 0.017702982
-0.085280009 0.22672001 -0.72799999 0 0 0 0.017702982
-0.084008567 0.22703139 -0.72899997 0 0 0 0.017964881
-0.082846656 0.22765429 -0.73100001 0 0 0 0.017964881
-0.081565723 0.2279657 -0.73200011 0 0 0 0.017964881
-0.080390483 0.2285886 -0.73400003 0 0 0 0.017368995
-0.078992382 0.2285886 -0.73400003 0 0 0 0.017975288
-0.077594288 0.2285886 -0.73400003 0 0 0 0.017744567
-0.076196194 0.2285886 -0.73400003 0 0 0 0.017744567
-0.07500191 0.2292114 -0.73600012 0 0 0 0.017744567
-0.073700003 0.2295229 -0.73699999 0 0 0 0.017744567
-0.072492383 0.23014569 -0.73900002 0 0 0 0.017702982
-0.07108476 0.23014569 -0.73900002 0 0 0 0.017702982
-0.069771431 0.2304571 -0.74000001 0 0 0 0.018277774
-0.068361901 0.2304571 -0.74000001 0 0 0 0.018277774
-0.067223817 0.2313914 -0.74299997 0 0 0 0.018277774
-0.065808572 0.2313914 -0.74299997 0 0 0 0.017500585
-0.064393342 0.2313914 -0.74299997 0 0 0 0.017975288
-0.062978096 0.2313914 -0.74299997 0 0 0 0.017975288
-0.061728571 0.2320143 -0.74500012 0 0 0 0.017744567
-0.06047143 0.2326372 -0.74699998 0 0 0 0.017744567
-0.059048571 0.2326372 -0.74699998 0 0 0 0.017744567
-0.057702862 0.2329486 -0.74800003 0 0 0 0.018277774
-0.056278098 0.2329486 -0.74800003 0 0 0 0.018277774
-0.055 0.2335714 -0.75000012 0 0 0 0.018277774
-0.053571429 0.2335714 -0.75000012 0 0 0 0.017217515
-0.052281909 0.23419429 -0.75199997 0 0 0 0.018396921
-0.050849531 0.23419429 -0.75199997 0 0 0 0.018396921
-0.04948286 0.2345057 -0.75300002 0 0 0 0.018115459
-0.048176192 0.2351286 -0.75500011 0 0 0 0.018115459
-0.046738099 0.2351286 -0.75500011 0 0 0 0.018115459
-0.045359999 0.23544 -0.75599998 0 0 0 0.017562907
-0.043919999 0.23544 -0.75599998 0 0 0 0.017562907
-0.042479999 0.23544 -0.75599998 0 0 0 0.017562907
-0.04104 0.23544 -0.75599998 0 0 0 0.020603828
-0.039704759 0.2360629 -0.75800002 0 0 0 0.020603828
-0.038260952 0.2360629 -0.75800002 0 0 0 0.020603828
-0.036914289 0.23668569 -0.76000011 0 0 0 0.019282572
-0.035466671 0.23668569 -0.76000011 0 0 0 0.018541519
-0.034063809 0.2369972 -0.76099998 0 0 0 0.018541519
-0.032614291 0.2369972 -0.76099998 0 0 0 0.017562907
-0.03124667 0.23762 -0.76300001 0 0 0 0.017562907
-0.02979333 0.23762 -0.76300001 0 0 0 0.017562907
-0.02841429 0.23824289 -0.76499999 0 0 0 0.013478096
-0.026957139 0.23824289 -0.76499999 0 0 0 0.020603828
-0.0255 0.23824289 -0.76499999 0 0 0 0.020603828
-0.024105711 0.2388657 -0.76700002 0 0 0 0.020603828
-0.02264476 0.2388657 -0.76700002 0 0 0 0.020603828
-0.021183809 0.2388657 -0.76700002 0 0 0 0.019936901
-0.01972286 0.2388657 -0.76700002 0 0 0 0.019936901
-0.018261909 0.2388657 -0.76700002 0 0 0 0.019936901
-0.01682286 0.23917709 -0.76800001 0 0 0 0.017562907
-0.01536 0.23917709 -0.76800001 0 0 0 0.015067007
-0.01387905 0.2388657 -0.76700002 0 0 0 0.013478096
-0.0124181 0.2388657 -0.76700002 0 0 0 0.020603828
-0.099704772 0.2234762 -0.72200012 0 0 0 0.020603828
-0.098465718 0.2237857 -0.72299999 0 0 0 0.020603828
-0.097088583 0.2237857 -0.72299999 0 0 0 0.020603828
-0.09571144 0.2237857 -0.72299999 0 0 0 0.019936901
-0.094334297 0.2237857 -0.72299999 0 0 0 0.019936901
-0.093214288 0.2244048 -0.72500002 0 0 0 0.019936901
-0.091833338 0.2244048 -0.72500002 0 0 0 0.015756326
-0.090577148 0.22471429 -0.72600001 0 0 0 0.015756326
-0.089440003 0.2253333 -0.72799999 0 0 0 0.012867345
-0.088053338 0.2253333 -0.72799999 0 0 0 0.020603828
-0.086666673 0.2253333 -0.72799999 0 0 0 0.020603828
-0.085397147 0.2256429 -0.72899997 0 0 0 0.019936901
-0.084239051 0.2262619 -0.73100001 0 0 0 0.019936901
-0.08296001 0.2265715 -0.73200011 0 0 0 0.015756326
-0.081565723 0.2265715 -0.73200011 0 0 0 0.015756326
-0.080390483 0.22719049 -0.73400003 0 0 0 0.015756326
-0.078992382 0.22719049 -0.73400003 0 0 0 0.014199523
-0.07780572 0.2278095 -0.73600012 0 0 0 0.019936901
-0.076403812 0.2278095 -0.73600012 0 0 0 0.015611751
-0.075103819 0.22811911 -0.73699999 0 0 0 0.015611751
-0.073899999 0.2287381 -0.73900002 0 0 0 0.015611751
-0.072492383 0.2287381 -0.73900002 0 0 0 0.014199523
-0.071180947 0.2290476 -0.74000001 0 0 0 0.014199523
-0.069960013 0.22966669 -0.74199998 0 0 0 0.014892113
-0.068546683 0.22966669 -0.74199998 0 0 0 0.014892113
-0.067223817 0.22997621 -0.74299997 0 0 0 0.014892113
-0.065808572 0.22997621 -0.74299997 0 0 0 0.014063228
-0.064393342 0.22997621 -0.74299997 0 0 0 0.014063228
-0.062978096 0.22997621 -0.74299997 0 0 0 0.014063228
-0.061728571 0.2305952 -0.74500012 0 0 0 0.0061034537
-0.060309529 0.2305952 -0.74500012 0 0 0 0.0061034537
-0.059048571 0.2312143 -0.74699998 0 0 0 0.0061034537
-0.057702862 0.2315238 -0.74800003 0 0 0 0.0061034537
-0.05642857 0.2321429 -0.75000012 0 0 0 0.014892113
-0.055 0.2321429 -0.75000012 0 0 0 0.014063228
-0.053571429 0.2321429 -0.75000012 0 0 0 0.014063228
-0.052281909 0.2327619 -0.75199997 0 0 0 0.014063228
-0.050849531 0.2327619 -0.75199997 0 0 0 0.014063228
-0.04948286 0.2330714 -0.75300002 0 0 0 0.014063228
-0.048048571 0.2330714 -0.75300002 0 0 0 0.0061034537
-0.046738099 0.2336905 -0.75500011 0 0 0 0.0061034537
-0.045299999 0.2336905 -0.75500011 0 0 0 0.0061034537
-0.043919999 0.234 -0.75599998 0 0 0 0.0061034537
-0.042479999 0.234 -0.75599998 0 0 0 0.013286543
-0.04104 0.234 -0.75599998 0 0 0 0.013286543
-0.039704759 0.2346191 -0.75800002 0 0 0 0.013286543
-0.038260952 0.2346191 -0.75800002 0 0 0 0.013286543
-0.036914289 0.23523811 -0.76000011 0 0 0 0.0091143623
-0.03551333 0.2355476 -0.76099998 0 0 0 0.0061034537
-0.034063809 0.2355476 -0.76099998 0 0 0 0.0061034537
-0.032614291 0.2355476 -0.76099998 0 0 0 0.0061034537
-0.03124667 0.2361667 -0.76300001 0 0 0 0.0061034537
-0.02979333 0.2361667 -0.76300001 0 0 0 0.013286543
-0.028340001 0.2361667 -0.76300001 0 0 0 0.013286543
-0.02688667 0.2361667 -0.76300001 0 0 0 0.013286543
-0.0255 0.23678569 -0.76499999 0 0 0 0.0091143623
-0.02404286 0.23678569 -0.76499999 0 0 0 0.0061034537
-0.02258572 0.23678569 -0.76499999 0 0 0 0.0061034537
-0.021128571 0.23678569 -0.76499999 0 0 0 0.0061034537
-0.01972286 0.23740479 -0.76700002 0 0 0 0.0061034537
-0.018261909 0.23740479 -0.76700002 0 0 0 0.0061034537
-0.016800949 0.23740479 -0.76700002 0 0 0 0.012587318
-0.01534 0.23740479 -0.76700002 0 0 0 0.012587318
-0.01387905 0.23740479 -0.76700002 0 0 0 0.0091143623
-0.0124181 0.23740479 -0.76700002 0 0 0 0.0070711006
-0.01095714 0.23740479 -0.76700002 0 0 0 0.0070711006
-0.0094961906 0.23740479 -0.76700002 0 0 0 0.0070711006
-0.099704772 0.222101 -0.72200012 0 0 0 0.0070711006
-0.098465718 0.22240859 -0.72299999 0 0 0 0.0070711006
-0.097088583 0.22240859 -0.72299999 0 0 0 0.0071487781
-0.09571144 0.22240859 -0.72299999 0 0 0 0.0071487781
-0.094595239 0.2230238 -0.72500002 0 0 0 0.0071487781
-0.093214288 0.2230238 -0.72500002 0 0 0 0.0071487781
-0.091959998 0.22333141 -0.72600001 0 0 0 0.0071487781
-0.090826668 0.22394671 -0.72799999 0 0 0 0.0071487781
-0.089440003 0.22394671 -0.72799999 0 0 0 0.0071487781
-0.088053338 0.22394671 -0.72799999 0 0 0 0.0071487781
-0.086785719 0.2242543 -0.72899997 0 0 0 0.0071487781
-0.085397147 0.2242543 -0.72899997 0 0 0 0.0071487781
-0.084239051 0.2248695 -0.73100001 0 0 0 0.0071487781
-0.08296001 0.2251772 -0.73200011 0 0 0 0.0071487781
-0.081565723 0.2251772 -0.73200011 0 0 0 0.0064645265
-0.080390483 0.22579239 -0.73400003 0 0 0 0.0072754016
-0.079207622 0.2264076 -0.73600012 0 0 0 0.0072754016
-0.07780572 0.2264076 -0.73600012 0 0 0 0.0073098727
-0.076403812 0.2264076 -0.73600012 0 0 0 0.0067352052
-0.075103819 0.2267153 -0.73699999 0 0 0 0.0072754016
-0.073899999 0.22733051 -0.73900002 0 0 0 0.0072754016
-0.072590478 0.2276381 -0.74000001 0 0 0 0.0072754016
-0.071180947 0.2276381 -0.74000001 0 0 0 0.0073098727
-0.069960013 0.2282533 -0.74199998 0 0 0 0.0072754016
-0.068639047 0.228561 -0.74299997 0 0 0 0.0072754016
-0.067404769 0.22917619 -0.74500012 0 0 0 0.0072754016
-0.065808572 0.228561 -0.74299997 0 0 0 0.0072754016
-0.064393342 0.228561 -0.74299997 0 0 0 0.0075533539
-0.062978096 0.228561 -0.74299997 0 0 0 0.0075533539
-0.061728571 0.22917619 -0.74500012 0 0 0 0.0075533539
-0.060309529 0.22917619 -0.74500012 0 0 0 0.0075533539
-0.059127621 0.2300991 -0.74800003 0 0 0 0.0075533539
-0.057702862 0.2300991 -0.74800003 0 0 0 0.0075533539
-0.05642857 0.23071431 -0.75000012 0 0 0 0.0081023984
-0.055 0.23071431 -0.75000012 0 0 0 0.0081023984
-0.053571429 0.23071431 -0.75000012 0 0 0 0.0081023984
-0.052281909 0.2313295 -0.75199997 0 0 0 0.0081023984
-0.050849531 0.2313295 -0.75199997 0 0 0 0.0081023984
-0.04948286 0.23163719 -0.75300002 0 0 0 0.0081023984
-0.048048571 0.23163719 -0.75300002 0 0 0 0.0081023984
-0.046738099 0.2322524 -0.75500011 0 0 0 0.0081023984
-0.045299999 0.2322524 -0.75500011 0 0 0 0.0081023984
-0.043861911 0.2322524 -0.75500011 0 0 0 0.0081023984
-0.042479999 0.23255999 -0.75599998 0 0 0 0.0081023984
-0.04104 0.23255999 -0.75599998 0 0 0 0.0081023984
-0.039704759 0.2331752 -0.75800002 0 0 0 0.006422143
-0.038260952 0.2331752 -0.75800002 0 0 0 0.0084066791
-0.036914289 0.2337905 -0.76000011 0 0 0 0.0084066791
-0.035466671 0.2337905 -0.76000011 0 0 0 0.0084066791
-0.034063809 0.23409811 -0.76099998 0 0 0 0.0084066791
-0.032614291 0.23409811 -0.76099998 0 0 0 0.0084066791
-0.031164769 0.23409811 -0.76099998 0 0 0 0.0091565559
-0.02971524 0.23409811 -0.76099998 0 0 0 0.0087274611
-0.028340001 0.2347133 -0.76300001 0 0 0 0.0067057991
-0.02688667 0.2347133 -0.76300001 0 0 0 0.0067057991
-0.02543333 0.2347133 -0.76300001 0 0 0 0.0086941486
-0.023979999 0.2347133 -0.76300001 0 0 0 0.0086941486
-0.02258572 0.2353286 -0.76499999 0 0 0 0.0086941486
-0.021128571 0.2353286 -0.76499999 0 0 0 0.0086941486
-0.019671431 0.2353286 -0.76499999 0 0 0 0.0092798471
-0.018214289 0.2353286 -0.76499999 0 0 0 0.0087274611
-0.01675714 0.2353286 -0.76499999 0 0 0 0.0087274611
-0.0153 0.2353286 -0.76499999 0 0 0 0.0067057991
-0.01384286 0.2353286 -0.76499999 0 0 0 0.0067057991
-0.01238571 0.2353286 -0.76499999 0 0 0 0.0067057991
-0.01092857 0.2353286 -0.76499999 0 0 0 0.0091671497
-0.0094714304 0.2353286 -0.76499999 0 0 0 0.0091671497
-0.10108 0.2207257 -0.72200012 0 0 0 0.0091671497
-0.099704772 0.2207257 -0.72200012 0 0 0 0.0092798471
-0.098738097 0.2216429 -0.72500002 0 0 0 0.0091565559
-0.097357146 0.2216429 -0.72500002 0 0 0 0.008930047
-0.095976189 0.2216429 -0.72500002 0 0 0 0.0082279583
-0.094595239 0.2216429 -0.72500002 0 0 0 0.0082279583
-0.093342863 0.22194859 -0.72600001 0 0 0 0.0067057991
-0.091959998 0.22194859 -0.72600001 0 0 0 0.0067057991
-0.090826668 0.22256 -0.72799999 0 0 0 0.0091671497
-0.089440003 0.22256 -0.72799999 0 0 0 0.0091671497
-0.088174291 0.2228657 -0.72899997 0 0 0 0.0091671497
-0.086785719 0.2228657 -0.72899997 0 0 0 0.0091565559
-0.08563143 0.2234771 -0.73100001 0 0 0 0.008930047
-0.084239051 0.2234771 -0.73100001 0 0 0 0.008930047
-0.08296001 0.2237829 -0.73200011 0 0 0 0.008930047
-0.081565723 0.2237829 -0.73200011 0 0 0 0.0080334591
-0.080390483 0.22439431 -0.73400003 0 0 0 0.006249649
-0.079207622 0.2250057 -0.73600012 0 0 0 0.006249649
-0.07780572 0.2250057 -0.73600012 0 0 0 0.011637611
-0.076507628 0.2253114 -0.73699999 0 0 0 0.011637611
-0.075103819 0.2253114 -0.73699999 0 0 0 0.011637611
-0.074000001 0.22622859 -0.74000001 0 0 0 0.011637611
-0.072590478 0.22622859 -0.74000001 0 0 0 0.0077708703
-0.071180947 0.22622859 -0.74000001 0 0 0 0.0077708703
-0.069960013 0.22684 -0.74199998 0 0 0 0.0080334591
-0.068639047 0.2271457 -0.74299997 0 0 0 0.0080334591
-0.067404769 0.2277572 -0.74500012 0 0 0 0.0064979899
-0.065808572 0.2271457 -0.74299997 0 0 0 0.0064979899
-0.064393342 0.2271457 -0.74299997 0 0 0 0.011637611
-0.062978096 0.2271457 -0.74299997 0 0 0 0.011637611
-0.061728571 0.2277572 -0.74500012 0 0 0 0.011637611
-0.060309529 0.2277572 -0.74500012 0 0 0 0.011637611
-0.059048571 0.2283686 -0.74699998 0 0 0 0.0077708703
-0.057702862 0.22867429 -0.74800003 0 0 0 0.0077708703
-0.05642857 0.2292857 -0.75000012 0 0 0 0.0069756238
-0.055 0.2292857 -0.75000012 0 0 0 0.0069756238
-0.053571429 0.2292857 -0.75000012 0 0 0 0.0064979899
-0.052142859 0.2292857 -0.75000012 0 0 0 0.0064979899
-0.050849531 0.2298972 -0.75199997 0 0 0 0.0064979899
-0.049417142 0.2298972 -0.75199997 0 0 0 0.025688039
-0.04798476 0.2298972 -0.75199997 0 0 0 0.025688039
-0.046614289 0.2302029 -0.75300002 0 0 0 0.011637611
-0.045299999 0.23081429 -0.75500011 0 0 0 0.011637611
-0.043861911 0.23081429 -0.75500011 0 0 0 0.011637611
-0.042479999 0.23112001 -0.75599998 0 0 0 0.011637611
-0.04104 0.23112001 -0.75599998 0 0 0 0.007517687
-0.0396 0.23112001 -0.75599998 0 0 0 0.0070288428
-0.038260952 0.2317314 -0.75800002 0 0 0 0.0070288428
-0.036817141 0.2317314 -0.75800002 0 0 0 0.0083763981
-0.03537333 0.2317314 -0.75800002 0 0 0 0.0083763981
-0.034019049 0.2323429 -0.76000011 0 0 0 0.0083763981
-0.032571431 0.2323429 -0.76000011 0 0 0 0.026950076
-0.03112381 0.2323429 -0.76000011 0 0 0 0.026950076
-0.02971524 0.2326486 -0.76099998 0 0 0 0.026950076
-0.028265711 0.2326486 -0.76099998 0 0 0 0.011555746
-0.026816189 0.2326486 -0.76099998 0 0 0 0.011555746
-0.02543333 0.23326001 -0.76300001 0 0 0 0.011555746
-0.023979999 0.23326001 -0.76300001 0 0 0 0.011555746
-0.02252667 0.23326001 -0.76300001 0 0 0 0.011555746
-0.021128571 0.2338714 -0.76499999 0 0 0 0.0070288428
-0.019671431 0.2338714 -0.76499999 0 0 0 0.0070513668
-0.018214289 0.2338714 -0.76499999 0 0 0 0.0083763981
-0.01675714 0.2338714 -0.76499999 0 0 0 0.0083763981
-0.0153 0.2338714 -0.76499999 0 0 0 0.012861159
-0.01384286 0.2338714 -0.76499999 0 0 0 0.026950076
-0.01238571 0.2338714 -0.76499999 0 0 0 0.026950076
-0.01092857 0.2338714 -0.76499999 0 0 0 0.026950076
-0.0094714304 0.2338714 -0.76499999 0 0 0 0.037742205
-0.0080142869 0.2338714 -0.76499999 0 0 0 0.011555746
-0.10122 0.21965431 -0.72299999 0 0 0 0.011555746
-0.099704772 0.2193505 -0.72200012 0 0 0 0.011555746
-0.098465718 0.21965431 -0.72299999 0 0 0 0.011555746
-0.097088583 0.21965431 -0.72299999 0 0 0 0.011555746
-0.09571144 0.21965431 -0.72299999 0 0 0 0.0070513668
-0.094595239 0.2202619 -0.72500002 0 0 0 0.0083763981
-0.093342863 0.22056571 -0.72600001 0 0 0 0.0083763981
-0.091959998 0.22056571 -0.72600001 0 0 0 0.013640126
-0.090826668 0.2211733 -0.72799999 0 0 0 0.013640126
-0.089562863 0.2214772 -0.72899997 0 0 0 0.026950076
-0.088174291 0.2214772 -0.72899997 0 0 0 0.026950076
-0.08702381 0.22208481 -0.73100001 0 0 0 0.034669161
-0.08563143 0.22208481 -0.73100001 0 0 0 0.037742205
-0.084354289 0.2223886 -0.73200011 0 0 0 0.011555746
-0.08296001 0.2223886 -0.73200011 0 0 0 0.0070513668
-0.081788577 0.22299621 -0.73400003 0 0 0 0.013640126
-0.080390483 0.22299621 -0.73400003 0 0 0 0.013640126
-0.079207622 0.2236038 -0.73600012 0 0 0 0.013640126
-0.077911437 0.2239076 -0.73699999 0 0 0 0.03485243
-0.076507628 0.2239076 -0.73699999 0 0 0 0.03485243
-0.075103819 0.2239076 -0.73699999 0 0 0 0.034669161
-0.073899999 0.2245152 -0.73900002 0 0 0 0.034669161
-0.072590478 0.224819 -0.74000001 0 0 0 0.037742205
-0.071180947 0.224819 -0.74000001 0 0 0 0.013640126
-0.069960013 0.2254267 -0.74199998 0 0 0 0.013640126
-0.068639047 0.22573049 -0.74299997 0 0 0 0.013640126
-0.067404769 0.2263381 -0.74500012 0 0 0 0.03794419
-0.065808572 0.22573049 -0.74299997 0 0 0 0.03485243
-0.064393342 0.22573049 -0.74299997 0 0 0 0.03485243
-0.062978096 0.22573049 -0.74299997 0 0 0 0.03485243
-0.061728571 0.2263381 -0.74500012 0 0 0 0.034669161
-0.060309529 0.2263381 -0.74500012 0 0 0 0.04131211
-0.059048571 0.2269457 -0.74699998 0 0 0 0.03794419
-0.057702862 0.2272495 -0.74800003 0 0 0 0.03794419
-0.056278098 0.2272495 -0.74800003 0 0 0 0.03794419
-0.055 0.2278572 -0.75000012 0 0 0 0.038700335
-0.053571429 0.2278572 -0.75000012 0 0 0 0.038700335
-0.052142859 0.2278572 -0.75000012 0 0 0 0.05049162
-0.050849531 0.2284648 -0.75199997 0 0 0 0.053144109
-0.049417142 0.2284648 -0.75199997 0 0 0 0.041527759
-0.04798476 0.2284648 -0.75199997 0 0 0 0.041527759
-0.046614289 0.2287686 -0.75300002 0 0 0 0.041527759
-0.04518 0.2287686 -0.75300002 0 0 0 0.05273236
-0.043861911 0.2293762 -0.75500011 0 0 0 0.05049162
-0.042423811 0.2293762 -0.75500011 0 0 0 0.05049162
-0.040985718 0.2293762 -0.75500011 0 0 0 0.053144109
-0.0396 0.22968 -0.75599998 0 0 0 0.045052014
-0.03816 0.22968 -0.75599998 0 0 0 0.045052014
-0.036817141 0.2302876 -0.75800002 0 0 0 0.045052014
-0.03537333 0.2302876 -0.75800002 0 0 0 0.05273236
-0.033840001 0.22968 -0.75599998 0 0 0 0.05273236
-0.032400001 0.22968 -0.75599998 0 0 0 0.062466953
-0.031041911 0.2302876 -0.75800002 0 0 0 0.065386564
-0.0295981 0.2302876 -0.75800002 0 0 0 0.045052014
-0.028154289 0.2302876 -0.75800002 0 0 0 0.045052014
-0.02671048 0.2302876 -0.75800002 0 0 0 0.055380255
-0.025333339 0.2308953 -0.76000011 0 0 0 0.059638299
-0.023885719 0.2308953 -0.76000011 0 0 0 0.059638299
-0.0224381 0.2308953 -0.76000011 0 0 0 0.065386564
-0.02107333 0.2318067 -0.76300001 0 0 0 0.065386564
-0.019619999 0.2318067 -0.76300001 0 0 0 0.045052014
-0.018166671 0.2318067 -0.76300001 0 0 0 0.055380255
-0.016713331 0.2318067 -0.76300001 0 0 0 0.059638299
-0.01526 0.2318067 -0.76300001 0 0 0 0.059638299
-0.01380667 0.2318067 -0.76300001 0 0 0 0.059638299
-0.01235333 0.2318067 -0.76300001 0 0 0 0.065386564
-0.01092857 0.23241431 -0.76499999 0 0 0 0.065386564
-0.0094714304 0.23241431 -0.76499999 0 0 0 0.066338621
-0.0080142869 0.23241431 -0.76499999 0 0 0 0.066338621
-0.0065571428 0.23241431 -0.76499999 0 0 0 0.02022747
-0.10108 0.2179753 -0.72200012 0 0 0 0.02022747
-0.099704772 0.2179753 -0.72200012 0 0 0 0.015115771
-0.098465718 0.2182772 -0.72299999 0 0 0 0.015115771
-0.097088583 0.2182772 -0.72299999 0 0 0 0.066338621
-0.095976189 0.218881 -0.72500002 0 0 0 0.066338621
-0.094725713 0.2191828 -0.72600001 0 0 0 0.02022747
-0.093342863 0.2191828 -0.72600001 0 0 0 0.02022747
-0.09221334 0.2197867 -0.72799999 0 0 0 0.014976252
-0.090826668 0.2197867 -0.72799999 0 0 0 0.014976252
-0.089562863 0.2200886 -0.72899997 0 0 0 0.066338621
-0.088174291 0.2200886 -0.72899997 0 0 0 0.066338621
-0.08702381 0.2206924 -0.73100001 0 0 0 0.021382725
-0.08563143 0.2206924 -0.73100001 0 0 0 0.021382725
-0.084354289 0.22099429 -0.73200011 0 0 0 0.014976252
-0.083186664 0.2215981 -0.73400003 0 0 0 0.014976252
-0.081788577 0.2215981 -0.73400003 0 0 0 0.014976252
-0.080390483 0.2215981 -0.73400003 0 0 0 0.066338621
-0.079207622 0.2222019 -0.73600012 0 0 0 0.066338621
-0.077911437 0.2225038 -0.73699999 0 0 0 0.021382725
-0.076507628 0.2225038 -0.73699999 0 0 0 0.021382725
-0.075103819 0.2225038 -0.73699999 0 0 0 0.014976252
-0.073899999 0.22310761 -0.73900002 0 0 0 0.014976252
-0.072590478 0.2234095 -0.74000001 0 0 0 0.014976252
-0.071180947 0.2234095 -0.74000001 0 0 0 0.013005492
-0.069960013 0.2240133 -0.74199998 0 0 0 0.066338621
-0.068639047 0.2243152 -0.74299997 0 0 0 0.066338621
-0.067223817 0.2243152 -0.74299997 0 0 0 0.021382725
-0.065808572 0.2243152 -0.74299997 0 0 0 0.015288024
-0.064393342 0.2243152 -0.74299997 0 0 0 0.015288024
-0.062893331 0.2240133 -0.74199998 0 0 0 0.015288024
-0.061562859 0.2243152 -0.74299997 0 0 0 0.016749818
-0.060147621 0.2243152 -0.74299997 0 0 0 0.016749818
-0.058890481 0.2249191 -0.74500012 0 0 0 0.066338621
-0.057471432 0.2249191 -0.74500012 0 0 0 0.066338621
-0.056202859 0.22552291 -0.74699998 0 0 0 0.021382725
-0.054853339 0.2258248 -0.74800003 0 0 0 0.015410477
-0.053428572 0.2258248 -0.74800003 0 0 0 0.017052846
-0.052003808 0.2258248 -0.74800003 0 0 0 0.016749818
-0.050579049 0.2258248 -0.74800003 0 0 0 0.016749818
-0.049154289 0.2258248 -0.74800003 0 0 0 0.013421433
-0.04785715 0.2264286 -0.75000012 0 0 0 0.013421433
-0.04642858 0.2264286 -0.75000012 0 0 0 0.013421433
-0.045000002 0.2264286 -0.75000012 0 0 0 0.066338621
-0.043687619 0.22703239 -0.75199997 0 0 0 0.017052846
-0.042255241 0.22703239 -0.75199997 0 0 0 0.017052846
-0.04082286 0.22703239 -0.75199997 0 0 0 0.017052846
-0.03944286 0.22733431 -0.75300002 0 0 0 0.016749818
-0.038008571 0.22733431 -0.75300002 0 0 0 0.016749818
-0.036574289 0.22733431 -0.75300002 0 0 0 0.013421433
-0.03514 0.22733431 -0.75300002 0 0 0 0.013421433
-0.033795241 0.2279381 -0.75500011 0 0 0 0.013421433
-0.032357149 0.2279381 -0.75500011 0 0 0 0.017052846
-0.030959999 0.22824 -0.75599998 0 0 0 0.016481195
-0.029519999 0.22824 -0.75599998 0 0 0 0.016481195
-0.02808 0.22824 -0.75599998 0 0 0 0.016481195
-0.02664 0.22824 -0.75599998 0 0 0 0.014926031
-0.0252 0.22824 -0.75599998 0 0 0 0.013421433
-0.023822861 0.22884379 -0.75800002 0 0 0 0.013421433
-0.0224381 0.2294476 -0.76000011 0 0 0 0.013421433
-0.021018101 0.2297495 -0.76099998 0 0 0 0.014688815
-0.01956857 0.2297495 -0.76099998 0 0 0 0.014688815
-0.018166671 0.2303533 -0.76300001 0 0 0 0.014442069
-0.016713331 0.2303533 -0.76300001 0 0 0 0.014442069
-0.01526 0.2303533 -0.76300001 0 0 0 0.012956802
-0.01380667 0.2303533 -0.76300001 0 0 0 0.012956802
-0.01238571 0.2309572 -0.76499999 0 0 0 0.012956802
-0.01092857 0.2309572 -0.76499999 0 0 0 0.012956802
-0.0094714304 0.2309572 -0.76499999 0 0 0 0.014688815
-0.007993333 0.2303533 -0.76300001 0 0 0 0.014688815
-0.00654 0.2303533 -0.76300001 0 0 0 0.014688815
-0.10108 0.2166 -0.72200012 0 0 0 0.013821877
-0.099704772 0.2166 -0.72200012 0 0 0 0.013759579
-0.098465718 0.21690001 -0.72299999 0 0 0 0.012956802
-0.097088583 0.21690001 -0.72299999 0 0 0 0.012956802
-0.095976189 0.2175 -0.72500002 0 0 0 0.014602206
-0.094595239 0.2175 -0.72500002 0 0 0 0.014602206
-0.093342863 0.21780001 -0.72600001 0 0 0 0.014602206
-0.091959998 0.21780001 -0.72600001 0 0 0 0.014688815
-0.090826668 0.2184 -0.72799999 0 0 0 0.014688815
-0.089440003 0.2184 -0.72799999 0 0 0 0.013828554
-0.088174291 0.21870001 -0.72899997 0 0 0 0.013828554
-0.086785719 0.21870001 -0.72899997 0 0 0 0.012533745
-0.08563143 0.2193 -0.73100001 0 0 0 0.011480757
-0.084239051 0.2193 -0.73100001 0 0 0 0.014602206
-0.08296001 0.21960001 -0.73200011 0 0 0 0.014602206
-0.081565723 0.21960001 -0.73200011 0 0 0 0.014602206
-0.080171444 0.21960001 -0.73200011 0 0 0 0.014746116
-0.078992382 0.2202 -0.73400003 0 0 0 0.013828554
-0.07780572 0.2208 -0.73600012 0 0 0 0.013828554
-0.076403812 0.2208 -0.73600012 0 0 0 0.013828554
-0.07500191 0.2208 -0.73600012 0 0 0 0.012533745
-0.073700003 0.2211 -0.73699999 0 0 0 0.011480757
-0.072492383 0.2217 -0.73900002 0 0 0 0.011480757
-0.07108476 0.2217 -0.73900002 0 0 0 0.014602206
-0.069771431 0.222 -0.74000001 0 0 0 0.014602206
-0.068361901 0.222 -0.74000001 0 0 0 0.014746116
-0.066952392 0.222 -0.74000001 0 0 0 0.014746116
-0.065720007 0.2226 -0.74199998 0 0 0 0.014746116
-0.064306669 0.2226 -0.74199998 0 0 0 0.014746116
-0.062893331 0.2226 -0.74199998 0 0 0 0.013828554
-0.061480001 0.2226 -0.74199998 0 0 0 0.012533745
-0.060147621 0.2229 -0.74299997 0 0 0 0.011831412
-0.058732379 0.2229 -0.74299997 0 0 0 0.011831412
-0.057317149 0.2229 -0.74299997 0 0 0 0.011831412
-0.056052379 0.2235 -0.74500012 0 0 0 0.014602206
-0.054633342 0.2235 -0.74500012 0 0 0 0.014602206
-0.053357139 0.22409999 -0.74699998 0 0 0 0.014746116
-0.05179524 0.2235 -0.74500012 0 0 0 0.014746116
-0.050511431 0.22409999 -0.74699998 0 0 0 0.014746116
-0.049088571 0.22409999 -0.74699998 0 0 0 0.014746116
-0.047665719 0.22409999 -0.74699998 0 0 0 0.011831412
-0.046304759 0.2244 -0.74800003 0 0 0 0.011831412
-0.044879999 0.2244 -0.74800003 0 0 0 0.011831412
-0.043455239 0.2244 -0.74800003 0 0 0 0.011831412
-0.042142861 0.22499999 -0.75000012 0 0 0 0.01420074
-0.04082286 0.2256 -0.75199997 0 0 0 0.014014228
-0.039390471 0.2256 -0.75199997 0 0 0 0.014014228
-0.0379581 0.2256 -0.75199997 0 0 0 0.014014228
-0.036525719 0.2256 -0.75199997 0 0 0 0.014014228
-0.035093341 0.2256 -0.75199997 0 0 0 0.013624247
-0.033705719 0.22589999 -0.75300002 0 0 0 0.011831412
-0.03227143 0.22589999 -0.75300002 0 0 0 0.01420074
-0.030919051 0.2265 -0.75500011 0 0 0 0.01420074
-0.029480951 0.2265 -0.75500011 0 0 0 0.01420074
-0.02804286 0.2265 -0.75500011 0 0 0 0.014363446
-0.02660476 0.2265 -0.75500011 0 0 0 0.014363446
-0.02516667 0.2265 -0.75500011 0 0 0 0.013624247
-0.02376 0.22679999 -0.75599998 0 0 0 0.013624247
-0.02237905 0.2274 -0.75800002 0 0 0 0.01420074
-0.020935239 0.2274 -0.75800002 0 0 0 0.01420074
-0.01956857 0.22830001 -0.76099998 0 0 0 0.01420074
-0.01811905 0.22830001 -0.76099998 0 0 0 0.014363446
-0.016669519 0.22830001 -0.76099998 0 0 0 0.014056794
-0.01526 0.2289 -0.76300001 0 0 0 0.014056794
-0.01380667 0.2289 -0.76300001 0 0 0 0.013578398
-0.01235333 0.2289 -0.76300001 0 0 0 0.01707069
-0.0109 0.2289 -0.76300001 0 0 0 0.01707069
-0.0094466684 0.2289 -0.76300001 0 0 0 0.01707069
-0.0079723811 0.22830001 -0.76099998 0 0 0 0.015807666
-0.006522858 0.22830001 -0.76099998 0 0 0 0.015807666
-0.10122 0.2155229 -0.72299999 0 0 0 0.015807666
-0.099842861 0.2155229 -0.72299999 0 0 0 0.015807666
-0.098465718 0.2155229 -0.72299999 0 0 0 0.015807666
-0.097357146 0.2161191 -0.72500002 0 0 0 0.017964881
-0.096108571 0.2164171 -0.72600001 0 0 0 0.01707069
-0.09498667 0.2170133 -0.72799999 0 0 0 0.01707069
-0.093599997 0.2170133 -0.72799999 0 0 0 0.01707069
-0.09221334 0.2170133 -0.72799999 0 0 0 0.01707069
-0.090826668 0.2170133 -0.72799999 0 0 0 0.017698007
-0.089562863 0.2173114 -0.72899997 0 0 0 0.017698007
-0.088174291 0.2173114 -0.72899997 0 0 0 0.017698007
-0.086785719 0.2173114 -0.72899997 0 0 0 0.017698007
-0.08563143 0.21790759 -0.73100001 0 0 0 0.017964881
-0.084239051 0.21790759 -0.73100001 0 0 0 0.017368995
-0.08296001 0.21820571 -0.73200011 0 0 0 0.01707069
-0.081565723 0.21820571 -0.73200011 0 0 0 0.01707069
-0.080390483 0.2188019 -0.73400003 0 0 0 0.01707069
-0.078992382 0.2188019 -0.73400003 0 0 0 0.01707069
-0.07780572 0.2193981 -0.73600012 0 0 0 0.01707069
-0.076403812 0.2193981 -0.73600012 0 0 0 0.017702982
-0.07500191 0.2193981 -0.73600012 0 0 0 0.017702982
-0.073600002 0.2193981 -0.73600012 0 0 0 0.017702982
-0.072296187 0.21969619 -0.73699999 0 0 0 0.017964881
-0.07108476 0.2202924 -0.73900002 0 0 0 0.017964881
-0.069677137 0.2202924 -0.73900002 0 0 0 0.017368995
-0.068361901 0.2205905 -0.74000001 0 0 0 0.017368995
-0.066952392 0.2205905 -0.74000001 0 0 0 0.01707069
-0.065542847 0.2205905 -0.74000001 0 0 0 0.01707069
-0.064133339 0.2205905 -0.74000001 0 0 0 0.01707069
-0.062723808 0.2205905 -0.74000001 0 0 0 0.01707069
-0.061314281 0.2205905 -0.74000001 0 0 0 0.017702982
-0.06006667 0.2211867 -0.74199998 0 0 0 0.017702982
-0.058732379 0.2214848 -0.74299997 0 0 0 0.017702982
-0.057317149 0.2214848 -0.74299997 0 0 0 0.018277774
-0.055901911 0.2214848 -0.74299997 0 0 0 0.017067259
-0.054633342 0.22208101 -0.74500012 0 0 0 0.017500585
-0.053214289 0.22208101 -0.74500012 0 0 0 0.017402072
-0.05179524 0.22208101 -0.74500012 0 0 0 0.017402072
-0.050376199 0.22208101 -0.74500012 0 0 0 0.017120073
-0.048957139 0.22208101 -0.74500012 0 0 0 0.017120073
-0.047665719 0.2226771 -0.74699998 0 0 0 0.017120073
-0.046242859 0.2226771 -0.74699998 0 0 0 0.017562907
-0.044819999 0.2226771 -0.74699998 0 0 0 0.017702982
-0.043455239 0.22297519 -0.74800003 0 0 0 0.018277774
-0.042142861 0.2235714 -0.75000012 0 0 0 0.018277774
-0.04071429 0.2235714 -0.75000012 0 0 0 0.017217515
-0.039285719 0.2235714 -0.75000012 0 0 0 0.017217515
-0.037857149 0.2235714 -0.75000012 0 0 0 0.0173932
-0.036525719 0.2241676 -0.75199997 0 0 0 0.018059339
-0.035093341 0.2241676 -0.75199997 0 0 0 0.018012842
-0.033660948 0.2241676 -0.75199997 0 0 0 0.017562907
-0.03227143 0.2244657 -0.75300002 0 0 0 0.017562907
-0.030919051 0.22506189 -0.75500011 0 0 0 0.017562907
-0.029480951 0.22506189 -0.75500011 0 0 0 0.013478096
-0.027968571 0.2244657 -0.75300002 0 0 0 0.018277774
-0.02660476 0.22506189 -0.75500011 0 0 0 0.017217515
-0.02516667 0.22506189 -0.75500011 0 0 0 0.017217515
-0.02372857 0.22506189 -0.75500011 0 0 0 0.017657857
-0.02232 0.22536001 -0.75599998 0 0 0 0.017409315
-0.020935239 0.2259562 -0.75800002 0 0 0 0.017562907
-0.01954286 0.2265524 -0.76000011 0 0 0 0.017562907
-0.01811905 0.22685049 -0.76099998 0 0 0 0.017562907
-0.016669519 0.22685049 -0.76099998 0 0 0 0.013478096
-0.01522 0.22685049 -0.76099998 0 0 0 0.013478096
-0.01377048 0.22685049 -0.76099998 0 0 0 0.020603828
-0.01235333 0.22744671 -0.76300001 0 0 0 0.020603828
-0.0109 0.22744671 -0.76300001 0 0 0 0.020603828
-0.0094219064 0.22685049 -0.76099998 0 0 0 0.01810316
-0.0079723811 0.22685049 -0.76099998 0 0 0 0.018490242
-0.006522858 0.22685049 -0.76099998 0 0 0 0.018490242
-0.10122 0.21414571 -0.72299999 0 0 0 0.017562907
-0.099704772 0.2138495 -0.72200012 0 0 0 0.015067007
-0.098329529 0.2138495 -0.72200012 0 0 0 0.013478096
-0.097357146 0.2147381 -0.72500002 0 0 0 0.013478096
-0.096108571 0.21503431 -0.72600001 0 0 0 0.012867345
-0.094725713 0.21503431 -0.72600001 0 0 0 0.020603828
-0.093342863 0.21503431 -0.72600001 0 0 0 0.020603828
-0.09221334 0.2156267 -0.72799999 0 0 0 0.020603828
-0.090826668 0.2156267 -0.72799999 0 0 0 0.01810316
-0.089440003 0.2156267 -0.72799999 0 0 0 0.018490242
-0.088053338 0.2156267 -0.72799999 0 0 0 0.018490242
-0.086785719 0.21592291 -0.72899997 0 0 0 0.015736504
-0.085397147 0.21592291 -0.72899997 0 0 0 0.015067007
-0.084008567 0.21592291 -0.72899997 0 0 0 0.015067007
-0.082846656 0.2165152 -0.73100001 0 0 0 0.012867345
-0.081565723 0.2168114 -0.73200011 0 0 0 0.012867345
-0.080171444 0.2168114 -0.73200011 0 0 0 0.020603828
-0.078992382 0.2174038 -0.73400003 0 0 0 0.018490242
-0.077594288 0.2174038 -0.73400003 0 0 0 0.018490242
-0.076196194 0.2174038 -0.73400003 0 0 0 0.015756326
-0.07500191 0.21799619 -0.73600012 0 0 0 0.015756326
-0.073600002 0.21799619 -0.73600012 0 0 0 0.015756326
-0.072296187 0.2182924 -0.73699999 0 0 0 0.014116408
-0.070892394 0.2182924 -0.73699999 0 0 0 0.01321712
-0.069677137 0.2188848 -0.73900002 0 0 0 0.01321712
-0.068269521 0.2188848 -0.73900002 0 0 0 0.015611751
-0.066952392 0.219181 -0.74000001 0 0 0 0.015611751
-0.065454289 0.2188848 -0.73900002 0 0 0 0.015611751
-0.064046673 0.2188848 -0.73900002 0 0 0 0.014199523
-0.06263905 0.2188848 -0.73900002 0 0 0 0.014199523
-0.061314281 0.219181 -0.74000001 0 0 0 0.01321712
-0.06006667 0.21977331 -0.74199998 0 0 0 0.01321712
-0.05865334 0.21977331 -0.74199998 0 0 0 0.012331203
-0.057240009 0.21977331 -0.74199998 0 0 0 0.0061034537
-0.055826671 0.21977331 -0.74199998 0 0 0 0.014892113
-0.05448667 0.2200695 -0.74299997 0 0 0 0.014892113
-0.053071432 0.2200695 -0.74299997 0 0 0 0.014892113
-0.05165619 0.2200695 -0.74299997 0 0 0 0.014063228
-0.050376199 0.22066189 -0.74500012 0 0 0 0.014063228
